# .PCD v0.7 - Point Cloud Data file format
VERSION 0.7
FIELDS x y z rgb normal_x normal_y normal_z curvature
SIZE 4 4 4 4 4 4 4 4
TYPE F F F U F F F F
COUNT 1 1 1 1 1 1 1 1
WIDTH 1197
HEIGHT 1
VIEWPOINT 0 0 0 1 0 0 0
POINTS 1197
DATA ascii
5.6999998 25.400002 3.5 33488896 0 0 0 0
5.7999997 25.400002 3.5 33488896 0 0 0 0
5.9000001 25.400002 3.5 33488896 0 0 0 0
6 25.400002 3.5 33488896 0 0 0 0
6.0999999 25.400002 3.5 33488896 0 0 0 0
6.1999998 25.400002 3.5 33488896 0 0 0 0
5.5999999 25.500002 3.5 33488896 0 0 0 0
5.6999998 25.500002 3.5 33488896 0 0 0 0
5.7999997 25.500002 3.5 33488896 0 0 0 0
5.9000001 25.500002 3.5 33488896 0 0 0 0
6 25.500002 3.5 33488896 0 0 0 0
6.0999999 25.500002 3.5 33488896 0 0 0 0
6.1999998 25.500002 3.5 33488896 0 0 0 0
5.5999999 25.6 3.5 33488896 0 0 0 0
5.6999998 25.6 3.5 33488896 0 0 0 0
5.7999997 25.6 3.5 33488896 0 0 0 0
5.9000001 25.6 3.5 33488896 0 0 0 0
6 25.6 3.5 33488896 0 0 0 0
6.0999999 25.6 3.5 33488896 0 0 0 0
6.1999998 25.6 3.5 33488896 0 0 0 0
5.5999999 25.700001 3.5 33488896 0 0 0 0
5.6999998 25.700001 3.5 33488896 0 0 0 0
5.7999997 25.700001 3.5 33488896 0 0 0 0
5.9000001 25.700001 3.5 33488896 0 0 0 0
6 25.700001 3.5 33488896 0 0 0 0
6.0999999 25.700001 3.5 33488896 0 0 0 0
6.1999998 25.700001 3.5 33488896 0 0 0 0
5.5999999 25.800001 3.5 33488896 0 0 0 0
5.9000001 25.800001 3.5 33488896 0 0 0 0
6 25.800001 3.5 33488896 0 0 0 0
6.0999999 25.800001 3.5 33488896 0 0 0 0
6.1999998 25.800001 3.5 33488896 0 0 0 0
5.9000001 25.9 3.5 33488896 0 0 0 0
6 25.9 3.5 33488896 0 0 0 0
6.0999999 25.9 3.5 33488896 0 0 0 0
6.1999998 25.9 3.5 33488896 0 0 0 0
5.5999999 25.300001 3.4000001 33488896 0 0 0 0
5.7999997 25.300001 3.4000001 33488896 0 0 0 0
5.5999999 25.400002 3.4000001 33488896 0 0 0 0
5.6999998 25.400002 3.4000001 33488896 0 0 0 0
5.7999997 25.400002 3.4000001 33488896 0 0 0 0
5.9000001 25.400002 3.4000001 33488896 0 0 0 0
6 25.400002 3.4000001 33488896 0 0 0 0
5.5999999 25.500002 3.4000001 33488896 0 0 0 0
5.6999998 25.500002 3.4000001 33488896 0 0 0 0
5.7999997 25.500002 3.4000001 33488896 0 0 0 0
5.9000001 25.500002 3.4000001 33488896 0 0 0 0
6 25.500002 3.4000001 33488896 0 0 0 0
6.0999999 25.500002 3.4000001 33488896 0 0 0 0
6.1999998 25.500002 3.4000001 33488896 0 0 0 0
2.9000001 26.4 4.5999999 33488896 0 0 0 0
3 26.4 4.5999999 33488896 0 0 0 0
2.9000001 26.5 4.5999999 33488896 0 0 0 0
3 26.5 4.5999999 33488896 0 0 0 0
2.9000001 26.6 4.5999999 33488896 0 0 0 0
3 26.6 4.5999999 33488896 0 0 0 0
2.9000001 26.699999 4.5999999 33488896 0 0 0 0
3 26.699999 4.5999999 33488896 0 0 0 0
2.9000001 23.6 5.6999998 33488896 0 0 0 0
3 23.6 5.6999998 33488896 0 0 0 0
3.2 25.6 3.5 33488896 0 0 0 0
3.3 25.6 3.5 33488896 0 0 0 0
3.4000001 25.6 3.5 33488896 0 0 0 0
3.5 25.6 3.5 33488896 0 0 0 0
3.6000001 25.6 3.5 33488896 0 0 0 0
3.7 25.6 3.5 33488896 0 0 0 0
3.8 25.6 3.5 33488896 0 0 0 0
3.9000001 25.6 3.5 33488896 0 0 0 0
3.2 25.700001 3.5 33488896 0 0 0 0
3.3 25.700001 3.5 33488896 0 0 0 0
3.4000001 25.700001 3.5 33488896 0 0 0 0
3.5 25.700001 3.5 33488896 0 0 0 0
3.6000001 25.700001 3.5 33488896 0 0 0 0
3.7 25.700001 3.5 33488896 0 0 0 0
3.8 25.700001 3.5 33488896 0 0 0 0
3.9000001 25.700001 3.5 33488896 0 0 0 0
3.2 25.800001 3.5 33488896 0 0 0 0
3.3 25.800001 3.5 33488896 0 0 0 0
3.4000001 25.800001 3.5 33488896 0 0 0 0
3.5 25.800001 3.5 33488896 0 0 0 0
3.6000001 25.800001 3.5 33488896 0 0 0 0
3.7 25.800001 3.5 33488896 0 0 0 0
3.8 25.800001 3.5 33488896 0 0 0 0
3.9000001 25.800001 3.5 33488896 0 0 0 0
2.7 26.4 4.1999998 33488896 0 0 0 0
2.8000002 26.4 4.1999998 33488896 0 0 0 0
2.9000001 26.4 4.1999998 33488896 0 0 0 0
3 26.4 4.1999998 33488896 0 0 0 0
2.7 26.5 4.1999998 33488896 0 0 0 0
2.8000002 26.5 4.1999998 33488896 0 0 0 0
2.9000001 26.5 4.1999998 33488896 0 0 0 0
3 26.5 4.1999998 33488896 0 0 0 0
2.7 26.6 4.1999998 33488896 0 0 0 0
2.8000002 26.6 4.1999998 33488896 0 0 0 0
2.9000001 26.6 4.1999998 33488896 0 0 0 0
3 26.6 4.1999998 33488896 0 0 0 0
2.7 26.699999 4.1999998 33488896 0 0 0 0
2.8000002 26.699999 4.1999998 33488896 0 0 0 0
2.9000001 26.699999 4.1999998 33488896 0 0 0 0
3 26.699999 4.1999998 33488896 0 0 0 0
2.7 26.4 4 33488896 0 0 0 0
2.8000002 26.4 4 33488896 0 0 0 0
2.9000001 26.4 4 33488896 0 0 0 0
3 26.4 4 33488896 0 0 0 0
2.7 26.5 4 33488896 0 0 0 0
2.8000002 26.5 4 33488896 0 0 0 0
2.9000001 26.5 4 33488896 0 0 0 0
3 26.5 4 33488896 0 0 0 0
2.7 26.6 4 33488896 0 0 0 0
2.8000002 26.6 4 33488896 0 0 0 0
2.9000001 26.6 4 33488896 0 0 0 0
3 26.6 4 33488896 0 0 0 0
2.7 26.699999 4 33488896 0 0 0 0
2.8000002 26.699999 4 33488896 0 0 0 0
2.9000001 26.699999 4 33488896 0 0 0 0
3 26.699999 4 33488896 0 0 0 0
3 23.6 5.5999999 33488896 0 0 0 0
3 23.700001 5.5999999 33488896 0 0 0 0
2.9000001 23.800001 5.5999999 33488896 0 0 0 0
3 23.800001 5.5999999 33488896 0 0 0 0
3 23.200001 5.7999997 33488896 0 0 0 0
3 23.300001 5.7999997 33488896 0 0 0 0
3 23.400002 5.7999997 33488896 0 0 0 0
5.5999999 24.800001 3.5 33488896 0 0 0 0
5.6999998 24.800001 3.5 33488896 0 0 0 0
5.7999997 24.800001 3.5 33488896 0 0 0 0
5.9000001 24.800001 3.5 33488896 0 0 0 0
6 24.800001 3.5 33488896 0 0 0 0
6.0999999 24.800001 3.5 33488896 0 0 0 0
6.1999998 24.800001 3.5 33488896 0 0 0 0
5.5999999 24.900002 3.5 33488896 0 0 0 0
5.6999998 24.900002 3.5 33488896 0 0 0 0
5.7999997 24.900002 3.5 33488896 0 0 0 0
5.9000001 24.900002 3.5 33488896 0 0 0 0
6 24.900002 3.5 33488896 0 0 0 0
6.0999999 24.900002 3.5 33488896 0 0 0 0
6.1999998 24.900002 3.5 33488896 0 0 0 0
5.5999999 25.000002 3.5 33488896 0 0 0 0
5.6999998 25.000002 3.5 33488896 0 0 0 0
5.7999997 25.000002 3.5 33488896 0 0 0 0
5.9000001 25.000002 3.5 33488896 0 0 0 0
6 25.000002 3.5 33488896 0 0 0 0
6.0999999 25.000002 3.5 33488896 0 0 0 0
6.1999998 25.000002 3.5 33488896 0 0 0 0
5.5999999 25.1 3.5 33488896 0 0 0 0
5.6999998 25.1 3.5 33488896 0 0 0 0
5.7999997 25.1 3.5 33488896 0 0 0 0
5.9000001 25.1 3.5 33488896 0 0 0 0
6 25.1 3.5 33488896 0 0 0 0
6.0999999 25.1 3.5 33488896 0 0 0 0
6.1999998 25.1 3.5 33488896 0 0 0 0
5.9000001 24.800001 3.7 33488896 0 0 0 0
6 24.800001 3.7 33488896 0 0 0 0
6.0999999 24.800001 3.7 33488896 0 0 0 0
6.1999998 24.800001 3.7 33488896 0 0 0 0
5.9000001 24.900002 3.7 33488896 0 0 0 0
6 24.900002 3.7 33488896 0 0 0 0
6.0999999 24.900002 3.7 33488896 0 0 0 0
6.1999998 24.900002 3.7 33488896 0 0 0 0
5.9000001 25.000002 3.7 33488896 0 0 0 0
6 25.000002 3.7 33488896 0 0 0 0
6.0999999 25.000002 3.7 33488896 0 0 0 0
6.1999998 25.000002 3.7 33488896 0 0 0 0
5.9000001 25.1 3.7 33488896 0 0 0 0
6 25.1 3.7 33488896 0 0 0 0
6.0999999 25.1 3.7 33488896 0 0 0 0
6.1999998 25.1 3.7 33488896 0 0 0 0
5.9000001 24.800001 3.9000001 33488896 0 0 0 0
6 24.800001 3.9000001 33488896 0 0 0 0
6.0999999 24.800001 3.9000001 33488896 0 0 0 0
6.1999998 24.800001 3.9000001 33488896 0 0 0 0
5.9000001 24.900002 3.9000001 33488896 0 0 0 0
6 24.900002 3.9000001 33488896 0 0 0 0
6.0999999 24.900002 3.9000001 33488896 0 0 0 0
6.1999998 24.900002 3.9000001 33488896 0 0 0 0
5.9000001 25.000002 3.9000001 33488896 0 0 0 0
6 25.000002 3.9000001 33488896 0 0 0 0
6.0999999 25.000002 3.9000001 33488896 0 0 0 0
6.1999998 25.000002 3.9000001 33488896 0 0 0 0
5.9000001 25.1 3.9000001 33488896 0 0 0 0
6 25.1 3.9000001 33488896 0 0 0 0
6.0999999 25.1 3.9000001 33488896 0 0 0 0
6.1999998 25.1 3.9000001 33488896 0 0 0 0
2.9000001 25.6 3.4000001 33488896 0 0 0 0
3 25.6 3.4000001 33488896 0 0 0 0
3.1000001 25.6 3.4000001 33488896 0 0 0 0
2.9000001 25.700001 3.4000001 33488896 0 0 0 0
3 25.700001 3.4000001 33488896 0 0 0 0
3.1000001 25.700001 3.4000001 33488896 0 0 0 0
2.8000002 25.800001 3.4000001 33488896 0 0 0 0
2.9000001 25.800001 3.4000001 33488896 0 0 0 0
3 25.800001 3.4000001 33488896 0 0 0 0
3.1000001 25.800001 3.4000001 33488896 0 0 0 0
2.9000001 25.9 3.4000001 33488896 0 0 0 0
3 25.9 3.4000001 33488896 0 0 0 0
3.1000001 25.9 3.4000001 33488896 0 0 0 0
5.9000001 26.4 4.5 33488896 0 0 0 0
6 26.4 4.5 33488896 0 0 0 0
6.0999999 26.4 4.5 33488896 0 0 0 0
6.1999998 26.4 4.5 33488896 0 0 0 0
5.9000001 26.5 4.5 33488896 0 0 0 0
6 26.5 4.5 33488896 0 0 0 0
6.0999999 26.5 4.5 33488896 0 0 0 0
6.1999998 26.5 4.5 33488896 0 0 0 0
5.9000001 26.6 4.5 33488896 0 0 0 0
6 26.6 4.5 33488896 0 0 0 0
6.0999999 26.6 4.5 33488896 0 0 0 0
6.1999998 26.6 4.5 33488896 0 0 0 0
5.9000001 26.699999 4.5 33488896 0 0 0 0
6 26.699999 4.5 33488896 0 0 0 0
6.0999999 26.699999 4.5 33488896 0 0 0 0
6.1999998 26.699999 4.5 33488896 0 0 0 0
5.9000001 26.799999 4.1999998 33488896 0 0 0 0
6 26.799999 4.1999998 33488896 0 0 0 0
6.0999999 26.799999 4.1999998 33488896 0 0 0 0
6.1999998 26.799999 4.1999998 33488896 0 0 0 0
5.9000001 26.9 4.1999998 33488896 0 0 0 0
6 26.9 4.1999998 33488896 0 0 0 0
6.0999999 26.9 4.1999998 33488896 0 0 0 0
6.1999998 26.9 4.1999998 33488896 0 0 0 0
5.9000001 27 4.1999998 33488896 0 0 0 0
6 27 4.1999998 33488896 0 0 0 0
6.0999999 27 4.1999998 33488896 0 0 0 0
6.1999998 27 4.1999998 33488896 0 0 0 0
5.9000001 27.1 4.1999998 33488896 0 0 0 0
6 27.1 4.1999998 33488896 0 0 0 0
6.0999999 27.1 4.1999998 33488896 0 0 0 0
6.1999998 27.1 4.1999998 33488896 0 0 0 0
5.9000001 26.4 4.6999998 33488896 0 0 0 0
6 26.4 4.6999998 33488896 0 0 0 0
6.0999999 26.4 4.6999998 33488896 0 0 0 0
6.1999998 26.4 4.6999998 33488896 0 0 0 0
5.9000001 26.5 4.6999998 33488896 0 0 0 0
6 26.5 4.6999998 33488896 0 0 0 0
6.0999999 26.5 4.6999998 33488896 0 0 0 0
6.1999998 26.5 4.6999998 33488896 0 0 0 0
5.9000001 26.6 4.6999998 33488896 0 0 0 0
6 26.6 4.6999998 33488896 0 0 0 0
6.0999999 26.6 4.6999998 33488896 0 0 0 0
6.1999998 26.6 4.6999998 33488896 0 0 0 0
5.9000001 26.699999 4.6999998 33488896 0 0 0 0
6 26.699999 4.6999998 33488896 0 0 0 0
6.0999999 26.699999 4.6999998 33488896 0 0 0 0
6.1999998 26.699999 4.6999998 33488896 0 0 0 0
2.8000002 26 3.4000001 33488896 0 0 0 0
2.9000001 26 3.4000001 33488896 0 0 0 0
3 26 3.4000001 33488896 0 0 0 0
3.1000001 26 3.4000001 33488896 0 0 0 0
2.8000002 26.1 3.4000001 33488896 0 0 0 0
2.9000001 26.1 3.4000001 33488896 0 0 0 0
3 26.1 3.4000001 33488896 0 0 0 0
3.1000001 26.1 3.4000001 33488896 0 0 0 0
2.8000002 26.200001 3.4000001 33488896 0 0 0 0
2.9000001 26.200001 3.4000001 33488896 0 0 0 0
3 26.200001 3.4000001 33488896 0 0 0 0
3.1000001 26.200001 3.4000001 33488896 0 0 0 0
2.8000002 26.300001 3.4000001 33488896 0 0 0 0
2.9000001 26.300001 3.4000001 33488896 0 0 0 0
3 26.300001 3.4000001 33488896 0 0 0 0
3.1000001 26.300001 3.4000001 33488896 0 0 0 0
5.9000001 26.799999 4.0999999 33488896 0 0 0 0
6 26.799999 4.0999999 33488896 0 0 0 0
6.0999999 26.799999 4.0999999 33488896 0 0 0 0
6.1999998 26.799999 4.0999999 33488896 0 0 0 0
5.9000001 26.9 4.0999999 33488896 0 0 0 0
6 26.9 4.0999999 33488896 0 0 0 0
6.0999999 26.9 4.0999999 33488896 0 0 0 0
6.1999998 26.9 4.0999999 33488896 0 0 0 0
5.9000001 27 4.0999999 33488896 0 0 0 0
6 27 4.0999999 33488896 0 0 0 0
6.0999999 27 4.0999999 33488896 0 0 0 0
6.1999998 27 4.0999999 33488896 0 0 0 0
5.9000001 27.1 4.0999999 33488896 0 0 0 0
6 27.1 4.0999999 33488896 0 0 0 0
6.0999999 27.1 4.0999999 33488896 0 0 0 0
6.1999998 27.1 4.0999999 33488896 0 0 0 0
5.9000001 26.4 4 33488896 0 0 0 0
6 26.4 4 33488896 0 0 0 0
6.0999999 26.4 4 33488896 0 0 0 0
6.1999998 26.4 4 33488896 0 0 0 0
5.9000001 26.5 4 33488896 0 0 0 0
6 26.5 4 33488896 0 0 0 0
6.0999999 26.5 4 33488896 0 0 0 0
6.1999998 26.5 4 33488896 0 0 0 0
5.9000001 26.6 4 33488896 0 0 0 0
6 26.6 4 33488896 0 0 0 0
6.0999999 26.6 4 33488896 0 0 0 0
6.1999998 26.6 4 33488896 0 0 0 0
5.9000001 26.699999 4 33488896 0 0 0 0
6 26.699999 4 33488896 0 0 0 0
6.0999999 26.699999 4 33488896 0 0 0 0
6.1999998 26.699999 4 33488896 0 0 0 0
5.9000001 26.4 4.4000001 33488896 0 0 0 0
6 26.4 4.4000001 33488896 0 0 0 0
6.0999999 26.4 4.4000001 33488896 0 0 0 0
6.1999998 26.4 4.4000001 33488896 0 0 0 0
5.9000001 26.5 4.4000001 33488896 0 0 0 0
6 26.5 4.4000001 33488896 0 0 0 0
6.0999999 26.5 4.4000001 33488896 0 0 0 0
6.1999998 26.5 4.4000001 33488896 0 0 0 0
5.9000001 26.6 4.4000001 33488896 0 0 0 0
6 26.6 4.4000001 33488896 0 0 0 0
6.0999999 26.6 4.4000001 33488896 0 0 0 0
6.1999998 26.6 4.4000001 33488896 0 0 0 0
5.9000001 26.699999 4.4000001 33488896 0 0 0 0
6 26.699999 4.4000001 33488896 0 0 0 0
6.0999999 26.699999 4.4000001 33488896 0 0 0 0
6.1999998 26.699999 4.4000001 33488896 0 0 0 0
5.9000001 26.4 4.5999999 33488896 0 0 0 0
6 26.4 4.5999999 33488896 0 0 0 0
6.0999999 26.4 4.5999999 33488896 0 0 0 0
6.1999998 26.4 4.5999999 33488896 0 0 0 0
5.9000001 26.5 4.5999999 33488896 0 0 0 0
6 26.5 4.5999999 33488896 0 0 0 0
6.0999999 26.5 4.5999999 33488896 0 0 0 0
6.1999998 26.5 4.5999999 33488896 0 0 0 0
5.9000001 26.6 4.5999999 33488896 0 0 0 0
6 26.6 4.5999999 33488896 0 0 0 0
6.0999999 26.6 4.5999999 33488896 0 0 0 0
6.1999998 26.6 4.5999999 33488896 0 0 0 0
5.9000001 26.699999 4.5999999 33488896 0 0 0 0
6 26.699999 4.5999999 33488896 0 0 0 0
6.0999999 26.699999 4.5999999 33488896 0 0 0 0
6.1999998 26.699999 4.5999999 33488896 0 0 0 0
5.9000001 26.799999 4.3000002 33488896 0 0 0 0
6 26.799999 4.3000002 33488896 0 0 0 0
6.0999999 26.799999 4.3000002 33488896 0 0 0 0
6.1999998 26.799999 4.3000002 33488896 0 0 0 0
5.9000001 26.9 4.3000002 33488896 0 0 0 0
6 26.9 4.3000002 33488896 0 0 0 0
6.0999999 26.9 4.3000002 33488896 0 0 0 0
6.1999998 26.9 4.3000002 33488896 0 0 0 0
5.9000001 27 4.3000002 33488896 0 0 0 0
6 27 4.3000002 33488896 0 0 0 0
6.0999999 27 4.3000002 33488896 0 0 0 0
6.1999998 27 4.3000002 33488896 0 0 0 0
5.9000001 27.1 4.3000002 33488896 0 0 0 0
6 27.1 4.3000002 33488896 0 0 0 0
6.0999999 27.1 4.3000002 33488896 0 0 0 0
6.1999998 27.1 4.3000002 33488896 0 0 0 0
5.9000001 24.800001 3.6000001 33488896 0 0 0 0
6 24.800001 3.6000001 33488896 0 0 0 0
6.0999999 24.800001 3.6000001 33488896 0 0 0 0
6.1999998 24.800001 3.6000001 33488896 0 0 0 0
5.9000001 24.900002 3.6000001 33488896 0 0 0 0
6 24.900002 3.6000001 33488896 0 0 0 0
6.0999999 24.900002 3.6000001 33488896 0 0 0 0
6.1999998 24.900002 3.6000001 33488896 0 0 0 0
5.9000001 25.000002 3.6000001 33488896 0 0 0 0
6 25.000002 3.6000001 33488896 0 0 0 0
6.0999999 25.000002 3.6000001 33488896 0 0 0 0
6.1999998 25.000002 3.6000001 33488896 0 0 0 0
5.9000001 25.1 3.6000001 33488896 0 0 0 0
6 25.1 3.6000001 33488896 0 0 0 0
6.0999999 25.1 3.6000001 33488896 0 0 0 0
6.1999998 25.1 3.6000001 33488896 0 0 0 0
5.9000001 24.800001 3.8 33488896 0 0 0 0
6 24.800001 3.8 33488896 0 0 0 0
6.0999999 24.800001 3.8 33488896 0 0 0 0
6.1999998 24.800001 3.8 33488896 0 0 0 0
5.9000001 24.900002 3.8 33488896 0 0 0 0
6 24.900002 3.8 33488896 0 0 0 0
6.0999999 24.900002 3.8 33488896 0 0 0 0
6.1999998 24.900002 3.8 33488896 0 0 0 0
5.9000001 25.000002 3.8 33488896 0 0 0 0
6 25.000002 3.8 33488896 0 0 0 0
6.0999999 25.000002 3.8 33488896 0 0 0 0
6.1999998 25.000002 3.8 33488896 0 0 0 0
5.9000001 25.1 3.8 33488896 0 0 0 0
6 25.1 3.8 33488896 0 0 0 0
6.0999999 25.1 3.8 33488896 0 0 0 0
6.1999998 25.1 3.8 33488896 0 0 0 0
6 25.200001 5.5999999 33488896 0 0 0 0
5.9000001 25.300001 5.5999999 33488896 0 0 0 0
6 25.300001 5.5999999 33488896 0 0 0 0
5.9000001 25.400002 5.5999999 33488896 0 0 0 0
6 25.400002 5.5999999 33488896 0 0 0 0
5.9000001 25.500002 5.5999999 33488896 0 0 0 0
6 25.500002 5.5999999 33488896 0 0 0 0
5.9000001 25.200001 5.1000004 33488896 0 0 0 0
6 25.200001 5.1000004 33488896 0 0 0 0
6.0999999 25.200001 5.1000004 33488896 0 0 0 0
5.9000001 25.300001 5.1000004 33488896 0 0 0 0
6 25.300001 5.1000004 33488896 0 0 0 0
6.0999999 25.300001 5.1000004 33488896 0 0 0 0
5.9000001 25.400002 5.1000004 33488896 0 0 0 0
6 25.400002 5.1000004 33488896 0 0 0 0
6.0999999 25.400002 5.1000004 33488896 0 0 0 0
5.9000001 25.500002 5.1000004 33488896 0 0 0 0
6 25.500002 5.1000004 33488896 0 0 0 0
6.0999999 25.500002 5.1000004 33488896 0 0 0 0
5.9000001 25.200001 3.8 33488896 0 0 0 0
6 25.200001 3.8 33488896 0 0 0 0
6.0999999 25.200001 3.8 33488896 0 0 0 0
6.1999998 25.200001 3.8 33488896 0 0 0 0
5.9000001 25.300001 3.8 33488896 0 0 0 0
6 25.300001 3.8 33488896 0 0 0 0
6.0999999 25.300001 3.8 33488896 0 0 0 0
6.1999998 25.300001 3.8 33488896 0 0 0 0
5.9000001 25.400002 3.8 33488896 0 0 0 0
6 25.400002 3.8 33488896 0 0 0 0
6.0999999 25.400002 3.8 33488896 0 0 0 0
6.1999998 25.400002 3.8 33488896 0 0 0 0
5.9000001 25.500002 3.8 33488896 0 0 0 0
6 25.500002 3.8 33488896 0 0 0 0
6.0999999 25.500002 3.8 33488896 0 0 0 0
6.1999998 25.500002 3.8 33488896 0 0 0 0
5.9000001 25.200001 3.9000001 33488896 0 0 0 0
6 25.200001 3.9000001 33488896 0 0 0 0
6.0999999 25.200001 3.9000001 33488896 0 0 0 0
6.1999998 25.200001 3.9000001 33488896 0 0 0 0
5.9000001 25.300001 3.9000001 33488896 0 0 0 0
6 25.300001 3.9000001 33488896 0 0 0 0
6.0999999 25.300001 3.9000001 33488896 0 0 0 0
6.1999998 25.300001 3.9000001 33488896 0 0 0 0
5.9000001 25.400002 3.9000001 33488896 0 0 0 0
6 25.400002 3.9000001 33488896 0 0 0 0
6.0999999 25.400002 3.9000001 33488896 0 0 0 0
6.1999998 25.400002 3.9000001 33488896 0 0 0 0
5.9000001 25.500002 3.9000001 33488896 0 0 0 0
6 25.500002 3.9000001 33488896 0 0 0 0
6.0999999 25.500002 3.9000001 33488896 0 0 0 0
6.1999998 25.500002 3.9000001 33488896 0 0 0 0
5.9000001 25.200001 5.5 33488896 0 0 0 0
6 25.200001 5.5 33488896 0 0 0 0
5.9000001 25.300001 5.5 33488896 0 0 0 0
6 25.300001 5.5 33488896 0 0 0 0
5.9000001 25.400002 5.5 33488896 0 0 0 0
6 25.400002 5.5 33488896 0 0 0 0
5.9000001 25.500002 5.5 33488896 0 0 0 0
6 25.500002 5.5 33488896 0 0 0 0
5.9000001 25.200001 3.6000001 33488896 0 0 0 0
6 25.200001 3.6000001 33488896 0 0 0 0
6.0999999 25.200001 3.6000001 33488896 0 0 0 0
6.1999998 25.200001 3.6000001 33488896 0 0 0 0
5.9000001 25.300001 3.6000001 33488896 0 0 0 0
6 25.300001 3.6000001 33488896 0 0 0 0
6.0999999 25.300001 3.6000001 33488896 0 0 0 0
6.1999998 25.300001 3.6000001 33488896 0 0 0 0
5.9000001 25.400002 3.6000001 33488896 0 0 0 0
6 25.400002 3.6000001 33488896 0 0 0 0
6.0999999 25.400002 3.6000001 33488896 0 0 0 0
6.1999998 25.400002 3.6000001 33488896 0 0 0 0
5.9000001 25.500002 3.6000001 33488896 0 0 0 0
6 25.500002 3.6000001 33488896 0 0 0 0
6.0999999 25.500002 3.6000001 33488896 0 0 0 0
6.1999998 25.500002 3.6000001 33488896 0 0 0 0
2.8000002 24.800001 3.5 33488896 0 0 0 0
2.9000001 24.800001 3.5 33488896 0 0 0 0
3 24.800001 3.5 33488896 0 0 0 0
3.1000001 24.800001 3.5 33488896 0 0 0 0
2.8000002 24.900002 3.5 33488896 0 0 0 0
2.9000001 24.900002 3.5 33488896 0 0 0 0
3 24.900002 3.5 33488896 0 0 0 0
3.1000001 24.900002 3.5 33488896 0 0 0 0
2.8000002 25.000002 3.5 33488896 0 0 0 0
2.9000001 25.000002 3.5 33488896 0 0 0 0
3 25.000002 3.5 33488896 0 0 0 0
3.1000001 25.000002 3.5 33488896 0 0 0 0
2.8000002 25.1 3.5 33488896 0 0 0 0
2.9000001 25.1 3.5 33488896 0 0 0 0
3 25.1 3.5 33488896 0 0 0 0
3.1000001 25.1 3.5 33488896 0 0 0 0
4.8000002 26 3.4000001 33488896 0 0 0 0
4.9000001 26 3.4000001 33488896 0 0 0 0
5 26 3.4000001 33488896 0 0 0 0
5.1000004 26 3.4000001 33488896 0 0 0 0
5.2000003 26 3.4000001 33488896 0 0 0 0
5.3000002 26 3.4000001 33488896 0 0 0 0
5.4000001 26 3.4000001 33488896 0 0 0 0
5.5 26 3.4000001 33488896 0 0 0 0
4.8000002 26.1 3.4000001 33488896 0 0 0 0
4.9000001 26.1 3.4000001 33488896 0 0 0 0
5 26.1 3.4000001 33488896 0 0 0 0
5.1000004 26.1 3.4000001 33488896 0 0 0 0
5.2000003 26.1 3.4000001 33488896 0 0 0 0
5.3000002 26.1 3.4000001 33488896 0 0 0 0
5.4000001 26.1 3.4000001 33488896 0 0 0 0
5.5 26.1 3.4000001 33488896 0 0 0 0
4.8000002 26.200001 3.4000001 33488896 0 0 0 0
4.9000001 26.200001 3.4000001 33488896 0 0 0 0
5 26.200001 3.4000001 33488896 0 0 0 0
5.1000004 26.200001 3.4000001 33488896 0 0 0 0
5.2000003 26.200001 3.4000001 33488896 0 0 0 0
5.3000002 26.200001 3.4000001 33488896 0 0 0 0
5.4000001 26.200001 3.4000001 33488896 0 0 0 0
5.5 26.200001 3.4000001 33488896 0 0 0 0
4.8000002 26.300001 3.4000001 33488896 0 0 0 0
4.9000001 26.300001 3.4000001 33488896 0 0 0 0
5 26.300001 3.4000001 33488896 0 0 0 0
5.1000004 26.300001 3.4000001 33488896 0 0 0 0
5.2000003 26.300001 3.4000001 33488896 0 0 0 0
5.3000002 26.300001 3.4000001 33488896 0 0 0 0
5.4000001 26.300001 3.4000001 33488896 0 0 0 0
5.5 26.300001 3.4000001 33488896 0 0 0 0
5.9000001 25.200001 5.4000001 33488896 0 0 0 0
6 25.200001 5.4000001 33488896 0 0 0 0
5.9000001 25.300001 5.4000001 33488896 0 0 0 0
6 25.300001 5.4000001 33488896 0 0 0 0
5.9000001 25.400002 5.4000001 33488896 0 0 0 0
6 25.400002 5.4000001 33488896 0 0 0 0
5.9000001 25.500002 5.4000001 33488896 0 0 0 0
6 25.500002 5.4000001 33488896 0 0 0 0
5.9000001 25.200001 3.7 33488896 0 0 0 0
6 25.200001 3.7 33488896 0 0 0 0
6.0999999 25.200001 3.7 33488896 0 0 0 0
6.1999998 25.200001 3.7 33488896 0 0 0 0
5.9000001 25.300001 3.7 33488896 0 0 0 0
6 25.300001 3.7 33488896 0 0 0 0
6.0999999 25.300001 3.7 33488896 0 0 0 0
6.1999998 25.300001 3.7 33488896 0 0 0 0
5.9000001 25.400002 3.7 33488896 0 0 0 0
6 25.400002 3.7 33488896 0 0 0 0
6.0999999 25.400002 3.7 33488896 0 0 0 0
6.1999998 25.400002 3.7 33488896 0 0 0 0
5.9000001 25.500002 3.7 33488896 0 0 0 0
6 25.500002 3.7 33488896 0 0 0 0
6.0999999 25.500002 3.7 33488896 0 0 0 0
6.1999998 25.500002 3.7 33488896 0 0 0 0
5.9000001 25.200001 4.9000001 33488896 0 0 0 0
6 25.200001 4.9000001 33488896 0 0 0 0
6.0999999 25.200001 4.9000001 33488896 0 0 0 0
5.9000001 25.300001 4.9000001 33488896 0 0 0 0
6 25.300001 4.9000001 33488896 0 0 0 0
6.0999999 25.300001 4.9000001 33488896 0 0 0 0
5.9000001 25.400002 4.9000001 33488896 0 0 0 0
6 25.400002 4.9000001 33488896 0 0 0 0
6.0999999 25.400002 4.9000001 33488896 0 0 0 0
5.9000001 25.500002 4.9000001 33488896 0 0 0 0
6 25.500002 4.9000001 33488896 0 0 0 0
6.0999999 25.500002 4.9000001 33488896 0 0 0 0
5.9000001 25.200001 4.8000002 33488896 0 0 0 0
6 25.200001 4.8000002 33488896 0 0 0 0
6.0999999 25.200001 4.8000002 33488896 0 0 0 0
5.9000001 25.300001 4.8000002 33488896 0 0 0 0
6 25.300001 4.8000002 33488896 0 0 0 0
6.0999999 25.300001 4.8000002 33488896 0 0 0 0
5.9000001 25.400002 4.8000002 33488896 0 0 0 0
6 25.400002 4.8000002 33488896 0 0 0 0
6.0999999 25.400002 4.8000002 33488896 0 0 0 0
5.9000001 25.500002 4.8000002 33488896 0 0 0 0
6 25.500002 4.8000002 33488896 0 0 0 0
6.0999999 25.500002 4.8000002 33488896 0 0 0 0
2.7 25.6 3.8 33488896 0 0 0 0
2.8000002 25.6 3.8 33488896 0 0 0 0
2.9000001 25.6 3.8 33488896 0 0 0 0
3 25.6 3.8 33488896 0 0 0 0
2.7 25.700001 3.8 33488896 0 0 0 0
2.8000002 25.700001 3.8 33488896 0 0 0 0
2.9000001 25.700001 3.8 33488896 0 0 0 0
3 25.700001 3.8 33488896 0 0 0 0
2.7 25.800001 3.8 33488896 0 0 0 0
2.8000002 25.800001 3.8 33488896 0 0 0 0
2.9000001 25.800001 3.8 33488896 0 0 0 0
3 25.800001 3.8 33488896 0 0 0 0
2.7 25.9 3.8 33488896 0 0 0 0
2.8000002 25.9 3.8 33488896 0 0 0 0
2.9000001 25.9 3.8 33488896 0 0 0 0
3 25.9 3.8 33488896 0 0 0 0
2.9000001 25.300001 3.4000001 33488896 0 0 0 0
3 25.300001 3.4000001 33488896 0 0 0 0
2.9000001 25.400002 3.4000001 33488896 0 0 0 0
3 25.400002 3.4000001 33488896 0 0 0 0
3.1000001 25.400002 3.4000001 33488896 0 0 0 0
2.9000001 25.500002 3.4000001 33488896 0 0 0 0
3 25.500002 3.4000001 33488896 0 0 0 0
3.1000001 25.500002 3.4000001 33488896 0 0 0 0
5.9000001 25.200001 5.3000002 33488896 0 0 0 0
6 25.200001 5.3000002 33488896 0 0 0 0
5.9000001 25.300001 5.3000002 33488896 0 0 0 0
6 25.300001 5.3000002 33488896 0 0 0 0
5.9000001 25.400002 5.3000002 33488896 0 0 0 0
6 25.400002 5.3000002 33488896 0 0 0 0
5.9000001 25.500002 5.3000002 33488896 0 0 0 0
6 25.500002 5.3000002 33488896 0 0 0 0
2.7 25.6 3.6000001 33488896 0 0 0 0
2.8000002 25.6 3.6000001 33488896 0 0 0 0
2.9000001 25.6 3.6000001 33488896 0 0 0 0
3 25.6 3.6000001 33488896 0 0 0 0
2.7 25.700001 3.6000001 33488896 0 0 0 0
2.8000002 25.700001 3.6000001 33488896 0 0 0 0
2.9000001 25.700001 3.6000001 33488896 0 0 0 0
3 25.700001 3.6000001 33488896 0 0 0 0
2.7 25.800001 3.6000001 33488896 0 0 0 0
2.8000002 25.800001 3.6000001 33488896 0 0 0 0
2.9000001 25.800001 3.6000001 33488896 0 0 0 0
3 25.800001 3.6000001 33488896 0 0 0 0
2.7 25.9 3.6000001 33488896 0 0 0 0
2.8000002 25.9 3.6000001 33488896 0 0 0 0
2.9000001 25.9 3.6000001 33488896 0 0 0 0
3 25.9 3.6000001 33488896 0 0 0 0
2.7 26 3.9000001 33488896 0 0 0 0
2.8000002 26 3.9000001 33488896 0 0 0 0
2.9000001 26 3.9000001 33488896 0 0 0 0
3 26 3.9000001 33488896 0 0 0 0
2.7 26.1 3.9000001 33488896 0 0 0 0
2.8000002 26.1 3.9000001 33488896 0 0 0 0
2.9000001 26.1 3.9000001 33488896 0 0 0 0
3 26.1 3.9000001 33488896 0 0 0 0
2.7 26.200001 3.9000001 33488896 0 0 0 0
2.8000002 26.200001 3.9000001 33488896 0 0 0 0
2.9000001 26.200001 3.9000001 33488896 0 0 0 0
3 26.200001 3.9000001 33488896 0 0 0 0
2.7 26.300001 3.9000001 33488896 0 0 0 0
2.8000002 26.300001 3.9000001 33488896 0 0 0 0
2.9000001 26.300001 3.9000001 33488896 0 0 0 0
3 26.300001 3.9000001 33488896 0 0 0 0
5.9000001 25.200001 5 33488896 0 0 0 0
6 25.200001 5 33488896 0 0 0 0
6.0999999 25.200001 5 33488896 0 0 0 0
5.9000001 25.300001 5 33488896 0 0 0 0
6 25.300001 5 33488896 0 0 0 0
6.0999999 25.300001 5 33488896 0 0 0 0
5.9000001 25.400002 5 33488896 0 0 0 0
6 25.400002 5 33488896 0 0 0 0
6.0999999 25.400002 5 33488896 0 0 0 0
5.9000001 25.500002 5 33488896 0 0 0 0
6 25.500002 5 33488896 0 0 0 0
6.0999999 25.500002 5 33488896 0 0 0 0
2.7 25.6 3.7 33488896 0 0 0 0
2.8000002 25.6 3.7 33488896 0 0 0 0
2.9000001 25.6 3.7 33488896 0 0 0 0
3 25.6 3.7 33488896 0 0 0 0
2.7 25.700001 3.7 33488896 0 0 0 0
2.8000002 25.700001 3.7 33488896 0 0 0 0
2.9000001 25.700001 3.7 33488896 0 0 0 0
3 25.700001 3.7 33488896 0 0 0 0
2.7 25.800001 3.7 33488896 0 0 0 0
2.8000002 25.800001 3.7 33488896 0 0 0 0
2.9000001 25.800001 3.7 33488896 0 0 0 0
3 25.800001 3.7 33488896 0 0 0 0
2.7 25.9 3.7 33488896 0 0 0 0
2.8000002 25.9 3.7 33488896 0 0 0 0
2.9000001 25.9 3.7 33488896 0 0 0 0
3 25.9 3.7 33488896 0 0 0 0
2.7 26 3.8 33488896 0 0 0 0
2.8000002 26 3.8 33488896 0 0 0 0
2.9000001 26 3.8 33488896 0 0 0 0
3 26 3.8 33488896 0 0 0 0
2.7 26.1 3.8 33488896 0 0 0 0
2.8000002 26.1 3.8 33488896 0 0 0 0
2.9000001 26.1 3.8 33488896 0 0 0 0
3 26.1 3.8 33488896 0 0 0 0
2.7 26.200001 3.8 33488896 0 0 0 0
2.8000002 26.200001 3.8 33488896 0 0 0 0
2.9000001 26.200001 3.8 33488896 0 0 0 0
3 26.200001 3.8 33488896 0 0 0 0
2.7 26.300001 3.8 33488896 0 0 0 0
2.8000002 26.300001 3.8 33488896 0 0 0 0
2.9000001 26.300001 3.8 33488896 0 0 0 0
3 26.300001 3.8 33488896 0 0 0 0
2.7 26 3.7 33488896 0 0 0 0
2.8000002 26 3.7 33488896 0 0 0 0
2.9000001 26 3.7 33488896 0 0 0 0
3 26 3.7 33488896 0 0 0 0
2.7 26.1 3.7 33488896 0 0 0 0
2.8000002 26.1 3.7 33488896 0 0 0 0
2.9000001 26.1 3.7 33488896 0 0 0 0
3 26.1 3.7 33488896 0 0 0 0
2.7 26.200001 3.7 33488896 0 0 0 0
2.8000002 26.200001 3.7 33488896 0 0 0 0
2.9000001 26.200001 3.7 33488896 0 0 0 0
3 26.200001 3.7 33488896 0 0 0 0
2.7 26.300001 3.7 33488896 0 0 0 0
2.8000002 26.300001 3.7 33488896 0 0 0 0
2.9000001 26.300001 3.7 33488896 0 0 0 0
3 26.300001 3.7 33488896 0 0 0 0
2.7 25.6 3.9000001 33488896 0 0 0 0
2.8000002 25.6 3.9000001 33488896 0 0 0 0
2.9000001 25.6 3.9000001 33488896 0 0 0 0
3 25.6 3.9000001 33488896 0 0 0 0
2.7 25.700001 3.9000001 33488896 0 0 0 0
2.8000002 25.700001 3.9000001 33488896 0 0 0 0
2.9000001 25.700001 3.9000001 33488896 0 0 0 0
3 25.700001 3.9000001 33488896 0 0 0 0
2.7 25.800001 3.9000001 33488896 0 0 0 0
2.8000002 25.800001 3.9000001 33488896 0 0 0 0
2.9000001 25.800001 3.9000001 33488896 0 0 0 0
3 25.800001 3.9000001 33488896 0 0 0 0
2.7 25.9 3.9000001 33488896 0 0 0 0
2.8000002 25.9 3.9000001 33488896 0 0 0 0
2.9000001 25.9 3.9000001 33488896 0 0 0 0
3 25.9 3.9000001 33488896 0 0 0 0
4.8000002 25.6 3.4000001 33488896 0 0 0 0
4.9000001 25.6 3.4000001 33488896 0 0 0 0
5 25.6 3.4000001 33488896 0 0 0 0
5.1000004 25.6 3.4000001 33488896 0 0 0 0
5.2000003 25.6 3.4000001 33488896 0 0 0 0
5.3000002 25.6 3.4000001 33488896 0 0 0 0
5.4000001 25.6 3.4000001 33488896 0 0 0 0
5.5 25.6 3.4000001 33488896 0 0 0 0
4.8000002 25.700001 3.4000001 33488896 0 0 0 0
4.9000001 25.700001 3.4000001 33488896 0 0 0 0
5 25.700001 3.4000001 33488896 0 0 0 0
5.1000004 25.700001 3.4000001 33488896 0 0 0 0
5.2000003 25.700001 3.4000001 33488896 0 0 0 0
5.3000002 25.700001 3.4000001 33488896 0 0 0 0
5.4000001 25.700001 3.4000001 33488896 0 0 0 0
5.5 25.700001 3.4000001 33488896 0 0 0 0
4.8000002 25.800001 3.4000001 33488896 0 0 0 0
4.9000001 25.800001 3.4000001 33488896 0 0 0 0
5 25.800001 3.4000001 33488896 0 0 0 0
5.1000004 25.800001 3.4000001 33488896 0 0 0 0
5.2000003 25.800001 3.4000001 33488896 0 0 0 0
5.3000002 25.800001 3.4000001 33488896 0 0 0 0
5.4000001 25.800001 3.4000001 33488896 0 0 0 0
5.5 25.800001 3.4000001 33488896 0 0 0 0
4.8000002 25.9 3.4000001 33488896 0 0 0 0
4.9000001 25.9 3.4000001 33488896 0 0 0 0
5 25.9 3.4000001 33488896 0 0 0 0
5.1000004 25.9 3.4000001 33488896 0 0 0 0
5.2000003 25.9 3.4000001 33488896 0 0 0 0
5.3000002 25.9 3.4000001 33488896 0 0 0 0
5.4000001 25.9 3.4000001 33488896 0 0 0 0
5.5 25.9 3.4000001 33488896 0 0 0 0
2.8000002 25.6 3.5 33488896 0 0 0 0
2.9000001 25.6 3.5 33488896 0 0 0 0
3 25.6 3.5 33488896 0 0 0 0
3.1000001 25.6 3.5 33488896 0 0 0 0
2.8000002 25.700001 3.5 33488896 0 0 0 0
2.9000001 25.700001 3.5 33488896 0 0 0 0
3 25.700001 3.5 33488896 0 0 0 0
3.1000001 25.700001 3.5 33488896 0 0 0 0
2.8000002 25.800001 3.5 33488896 0 0 0 0
2.9000001 25.800001 3.5 33488896 0 0 0 0
3 25.800001 3.5 33488896 0 0 0 0
3.1000001 25.800001 3.5 33488896 0 0 0 0
2.8000002 25.9 3.5 33488896 0 0 0 0
2.9000001 25.9 3.5 33488896 0 0 0 0
3 25.9 3.5 33488896 0 0 0 0
2.8000002 26 4.5 33488896 0 0 0 0
2.9000001 26 4.5 33488896 0 0 0 0
3 26 4.5 33488896 0 0 0 0
2.8000002 26.1 4.5 33488896 0 0 0 0
2.9000001 26.1 4.5 33488896 0 0 0 0
3 26.1 4.5 33488896 0 0 0 0
2.8000002 26.200001 4.5 33488896 0 0 0 0
2.9000001 26.200001 4.5 33488896 0 0 0 0
3 26.200001 4.5 33488896 0 0 0 0
2.8000002 26.300001 4.5 33488896 0 0 0 0
2.9000001 26.300001 4.5 33488896 0 0 0 0
3 26.300001 4.5 33488896 0 0 0 0
2.7 26 4.4000001 33488896 0 0 0 0
2.8000002 26 4.4000001 33488896 0 0 0 0
2.9000001 26 4.4000001 33488896 0 0 0 0
3 26 4.4000001 33488896 0 0 0 0
2.7 26.1 4.4000001 33488896 0 0 0 0
2.8000002 26.1 4.4000001 33488896 0 0 0 0
2.9000001 26.1 4.4000001 33488896 0 0 0 0
3 26.1 4.4000001 33488896 0 0 0 0
2.7 26.200001 4.4000001 33488896 0 0 0 0
2.8000002 26.200001 4.4000001 33488896 0 0 0 0
2.9000001 26.200001 4.4000001 33488896 0 0 0 0
3 26.200001 4.4000001 33488896 0 0 0 0
2.7 26.300001 4.4000001 33488896 0 0 0 0
2.8000002 26.300001 4.4000001 33488896 0 0 0 0
2.9000001 26.300001 4.4000001 33488896 0 0 0 0
3 26.300001 4.4000001 33488896 0 0 0 0
5.9000001 25.200001 5.2000003 33488896 0 0 0 0
6 25.200001 5.2000003 33488896 0 0 0 0
6.0999999 25.200001 5.2000003 33488896 0 0 0 0
5.9000001 25.300001 5.2000003 33488896 0 0 0 0
6 25.300001 5.2000003 33488896 0 0 0 0
6.0999999 25.300001 5.2000003 33488896 0 0 0 0
5.9000001 25.400002 5.2000003 33488896 0 0 0 0
6 25.400002 5.2000003 33488896 0 0 0 0
6.0999999 25.400002 5.2000003 33488896 0 0 0 0
5.9000001 25.500002 5.2000003 33488896 0 0 0 0
6 25.500002 5.2000003 33488896 0 0 0 0
6.0999999 25.500002 5.2000003 33488896 0 0 0 0
5.9000001 24.800001 5.2000003 33488896 0 0 0 0
6 24.800001 5.2000003 33488896 0 0 0 0
5.9000001 24.900002 5.2000003 33488896 0 0 0 0
6 24.900002 5.2000003 33488896 0 0 0 0
5.9000001 25.000002 5.2000003 33488896 0 0 0 0
6 25.000002 5.2000003 33488896 0 0 0 0
6.0999999 25.000002 5.2000003 33488896 0 0 0 0
5.9000001 25.1 5.2000003 33488896 0 0 0 0
6 25.1 5.2000003 33488896 0 0 0 0
6.0999999 25.1 5.2000003 33488896 0 0 0 0
2.7 26 3.6000001 33488896 0 0 0 0
2.8000002 26 3.6000001 33488896 0 0 0 0
2.9000001 26 3.6000001 33488896 0 0 0 0
3 26 3.6000001 33488896 0 0 0 0
2.7 26.1 3.6000001 33488896 0 0 0 0
2.8000002 26.1 3.6000001 33488896 0 0 0 0
2.9000001 26.1 3.6000001 33488896 0 0 0 0
3 26.1 3.6000001 33488896 0 0 0 0
2.7 26.200001 3.6000001 33488896 0 0 0 0
2.8000002 26.200001 3.6000001 33488896 0 0 0 0
2.9000001 26.200001 3.6000001 33488896 0 0 0 0
3 26.200001 3.6000001 33488896 0 0 0 0
2.7 26.300001 3.6000001 33488896 0 0 0 0
2.8000002 26.300001 3.6000001 33488896 0 0 0 0
2.9000001 26.300001 3.6000001 33488896 0 0 0 0
3 26.300001 3.6000001 33488896 0 0 0 0
5.9000001 24.800001 4.9000001 33488896 0 0 0 0
6 24.800001 4.9000001 33488896 0 0 0 0
6.0999999 24.800001 4.9000001 33488896 0 0 0 0
5.9000001 24.900002 4.9000001 33488896 0 0 0 0
6 24.900002 4.9000001 33488896 0 0 0 0
6.0999999 24.900002 4.9000001 33488896 0 0 0 0
5.9000001 25.000002 4.9000001 33488896 0 0 0 0
6 25.000002 4.9000001 33488896 0 0 0 0
6.0999999 25.000002 4.9000001 33488896 0 0 0 0
5.9000001 25.1 4.9000001 33488896 0 0 0 0
6 25.1 4.9000001 33488896 0 0 0 0
6.0999999 25.1 4.9000001 33488896 0 0 0 0
2.7 26 3.5 33488896 0 0 0 0
2.8000002 26 3.5 33488896 0 0 0 0
2.9000001 26 3.5 33488896 0 0 0 0
3 26 3.5 33488896 0 0 0 0
2.7 26.1 3.5 33488896 0 0 0 0
2.8000002 26.1 3.5 33488896 0 0 0 0
2.9000001 26.1 3.5 33488896 0 0 0 0
3 26.1 3.5 33488896 0 0 0 0
2.7 26.200001 3.5 33488896 0 0 0 0
2.8000002 26.200001 3.5 33488896 0 0 0 0
2.9000001 26.200001 3.5 33488896 0 0 0 0
3 26.200001 3.5 33488896 0 0 0 0
2.7 26.300001 3.5 33488896 0 0 0 0
2.8000002 26.300001 3.5 33488896 0 0 0 0
2.9000001 26.300001 3.5 33488896 0 0 0 0
3 26.300001 3.5 33488896 0 0 0 0
2.7 25.6 4.0999999 33488896 0 0 0 0
2.8000002 25.6 4.0999999 33488896 0 0 0 0
2.9000001 25.6 4.0999999 33488896 0 0 0 0
3 25.6 4.0999999 33488896 0 0 0 0
2.7 25.700001 4.0999999 33488896 0 0 0 0
2.8000002 25.700001 4.0999999 33488896 0 0 0 0
2.9000001 25.700001 4.0999999 33488896 0 0 0 0
3 25.700001 4.0999999 33488896 0 0 0 0
2.7 25.800001 4.0999999 33488896 0 0 0 0
2.8000002 25.800001 4.0999999 33488896 0 0 0 0
2.9000001 25.800001 4.0999999 33488896 0 0 0 0
3 25.800001 4.0999999 33488896 0 0 0 0
2.7 25.9 4.0999999 33488896 0 0 0 0
2.8000002 25.9 4.0999999 33488896 0 0 0 0
2.9000001 25.9 4.0999999 33488896 0 0 0 0
3 25.9 4.0999999 33488896 0 0 0 0
2.8000002 25.200001 3.5 33488896 0 0 0 0
2.9000001 25.200001 3.5 33488896 0 0 0 0
3 25.200001 3.5 33488896 0 0 0 0
3.1000001 25.200001 3.5 33488896 0 0 0 0
2.8000002 25.300001 3.5 33488896 0 0 0 0
2.9000001 25.300001 3.5 33488896 0 0 0 0
3 25.300001 3.5 33488896 0 0 0 0
3.1000001 25.300001 3.5 33488896 0 0 0 0
2.8000002 25.400002 3.5 33488896 0 0 0 0
2.9000001 25.400002 3.5 33488896 0 0 0 0
3 25.400002 3.5 33488896 0 0 0 0
3.1000001 25.400002 3.5 33488896 0 0 0 0
2.8000002 25.500002 3.5 33488896 0 0 0 0
2.9000001 25.500002 3.5 33488896 0 0 0 0
3 25.500002 3.5 33488896 0 0 0 0
3.1000001 25.500002 3.5 33488896 0 0 0 0
2.8000002 26 4.5999999 33488896 0 0 0 0
2.9000001 26 4.5999999 33488896 0 0 0 0
3 26 4.5999999 33488896 0 0 0 0
2.8000002 26.1 4.5999999 33488896 0 0 0 0
2.9000001 26.1 4.5999999 33488896 0 0 0 0
3 26.1 4.5999999 33488896 0 0 0 0
2.9000001 26.200001 4.5999999 33488896 0 0 0 0
3 26.200001 4.5999999 33488896 0 0 0 0
2.9000001 26.300001 4.5999999 33488896 0 0 0 0
3 26.300001 4.5999999 33488896 0 0 0 0
5.9000001 24.4 5.5999999 33488896 0 0 0 0
6 24.4 5.5999999 33488896 0 0 0 0
5.9000001 24.5 5.5999999 33488896 0 0 0 0
6 24.5 5.5999999 33488896 0 0 0 0
5.9000001 24.6 5.5999999 33488896 0 0 0 0
6 24.6 5.5999999 33488896 0 0 0 0
5.9000001 24.700001 5.5999999 33488896 0 0 0 0
6 24.700001 5.5999999 33488896 0 0 0 0
2.7 25.6 4.3000002 33488896 0 0 0 0
2.8000002 25.6 4.3000002 33488896 0 0 0 0
2.9000001 25.6 4.3000002 33488896 0 0 0 0
3 25.6 4.3000002 33488896 0 0 0 0
2.7 25.700001 4.3000002 33488896 0 0 0 0
2.8000002 25.700001 4.3000002 33488896 0 0 0 0
2.9000001 25.700001 4.3000002 33488896 0 0 0 0
3 25.700001 4.3000002 33488896 0 0 0 0
2.7 25.800001 4.3000002 33488896 0 0 0 0
2.8000002 25.800001 4.3000002 33488896 0 0 0 0
2.9000001 25.800001 4.3000002 33488896 0 0 0 0
3 25.800001 4.3000002 33488896 0 0 0 0
2.7 25.9 4.3000002 33488896 0 0 0 0
2.8000002 25.9 4.3000002 33488896 0 0 0 0
2.9000001 25.9 4.3000002 33488896 0 0 0 0
3 25.9 4.3000002 33488896 0 0 0 0
2.7 26 4.1999998 33488896 0 0 0 0
2.8000002 26 4.1999998 33488896 0 0 0 0
2.9000001 26 4.1999998 33488896 0 0 0 0
3 26 4.1999998 33488896 0 0 0 0
2.7 26.1 4.1999998 33488896 0 0 0 0
2.8000002 26.1 4.1999998 33488896 0 0 0 0
2.9000001 26.1 4.1999998 33488896 0 0 0 0
3 26.1 4.1999998 33488896 0 0 0 0
2.7 26.200001 4.1999998 33488896 0 0 0 0
2.8000002 26.200001 4.1999998 33488896 0 0 0 0
2.9000001 26.200001 4.1999998 33488896 0 0 0 0
3 26.200001 4.1999998 33488896 0 0 0 0
2.7 26.300001 4.1999998 33488896 0 0 0 0
2.8000002 26.300001 4.1999998 33488896 0 0 0 0
2.9000001 26.300001 4.1999998 33488896 0 0 0 0
3 26.300001 4.1999998 33488896 0 0 0 0
5.9000001 24.800001 5.4000001 33488896 0 0 0 0
6 24.800001 5.4000001 33488896 0 0 0 0
5.9000001 24.900002 5.4000001 33488896 0 0 0 0
6 24.900002 5.4000001 33488896 0 0 0 0
5.9000001 25.000002 5.4000001 33488896 0 0 0 0
6 25.000002 5.4000001 33488896 0 0 0 0
5.9000001 25.1 5.4000001 33488896 0 0 0 0
6 25.1 5.4000001 33488896 0 0 0 0
5.9000001 24.800001 5.1000004 33488896 0 0 0 0
6 24.800001 5.1000004 33488896 0 0 0 0
6.0999999 24.800001 5.1000004 33488896 0 0 0 0
5.9000001 24.900002 5.1000004 33488896 0 0 0 0
6 24.900002 5.1000004 33488896 0 0 0 0
6.0999999 24.900002 5.1000004 33488896 0 0 0 0
5.9000001 25.000002 5.1000004 33488896 0 0 0 0
6 25.000002 5.1000004 33488896 0 0 0 0
6.0999999 25.000002 5.1000004 33488896 0 0 0 0
5.9000001 25.1 5.1000004 33488896 0 0 0 0
6 25.1 5.1000004 33488896 0 0 0 0
6.0999999 25.1 5.1000004 33488896 0 0 0 0
2.7 25.200001 3.9000001 33488896 0 0 0 0
2.8000002 25.200001 3.9000001 33488896 0 0 0 0
2.9000001 25.200001 3.9000001 33488896 0 0 0 0
3 25.200001 3.9000001 33488896 0 0 0 0
2.7 25.300001 3.9000001 33488896 0 0 0 0
2.8000002 25.300001 3.9000001 33488896 0 0 0 0
2.9000001 25.300001 3.9000001 33488896 0 0 0 0
3 25.300001 3.9000001 33488896 0 0 0 0
2.7 25.400002 3.9000001 33488896 0 0 0 0
2.8000002 25.400002 3.9000001 33488896 0 0 0 0
2.9000001 25.400002 3.9000001 33488896 0 0 0 0
3 25.400002 3.9000001 33488896 0 0 0 0
2.7 25.500002 3.9000001 33488896 0 0 0 0
2.8000002 25.500002 3.9000001 33488896 0 0 0 0
2.9000001 25.500002 3.9000001 33488896 0 0 0 0
3 25.500002 3.9000001 33488896 0 0 0 0
2.7 25.200001 3.8 33488896 0 0 0 0
2.8000002 25.200001 3.8 33488896 0 0 0 0
2.9000001 25.200001 3.8 33488896 0 0 0 0
3 25.200001 3.8 33488896 0 0 0 0
2.7 25.300001 3.8 33488896 0 0 0 0
2.8000002 25.300001 3.8 33488896 0 0 0 0
2.9000001 25.300001 3.8 33488896 0 0 0 0
3 25.300001 3.8 33488896 0 0 0 0
2.7 25.400002 3.8 33488896 0 0 0 0
2.8000002 25.400002 3.8 33488896 0 0 0 0
2.9000001 25.400002 3.8 33488896 0 0 0 0
3 25.400002 3.8 33488896 0 0 0 0
2.7 25.500002 3.8 33488896 0 0 0 0
2.8000002 25.500002 3.8 33488896 0 0 0 0
2.9000001 25.500002 3.8 33488896 0 0 0 0
3 25.500002 3.8 33488896 0 0 0 0
2.7 26 4.3000002 33488896 0 0 0 0
2.8000002 26 4.3000002 33488896 0 0 0 0
2.9000001 26 4.3000002 33488896 0 0 0 0
3 26 4.3000002 33488896 0 0 0 0
2.7 26.1 4.3000002 33488896 0 0 0 0
2.8000002 26.1 4.3000002 33488896 0 0 0 0
2.9000001 26.1 4.3000002 33488896 0 0 0 0
3 26.1 4.3000002 33488896 0 0 0 0
2.7 26.200001 4.3000002 33488896 0 0 0 0
2.8000002 26.200001 4.3000002 33488896 0 0 0 0
2.9000001 26.200001 4.3000002 33488896 0 0 0 0
3 26.200001 4.3000002 33488896 0 0 0 0
2.7 26.300001 4.3000002 33488896 0 0 0 0
2.8000002 26.300001 4.3000002 33488896 0 0 0 0
2.9000001 26.300001 4.3000002 33488896 0 0 0 0
3 26.300001 4.3000002 33488896 0 0 0 0
2.7 25.200001 3.7 33488896 0 0 0 0
2.8000002 25.200001 3.7 33488896 0 0 0 0
2.9000001 25.200001 3.7 33488896 0 0 0 0
3 25.200001 3.7 33488896 0 0 0 0
2.7 25.300001 3.7 33488896 0 0 0 0
2.8000002 25.300001 3.7 33488896 0 0 0 0
2.9000001 25.300001 3.7 33488896 0 0 0 0
3 25.300001 3.7 33488896 0 0 0 0
2.7 25.400002 3.7 33488896 0 0 0 0
2.8000002 25.400002 3.7 33488896 0 0 0 0
2.9000001 25.400002 3.7 33488896 0 0 0 0
3 25.400002 3.7 33488896 0 0 0 0
2.7 25.500002 3.7 33488896 0 0 0 0
2.8000002 25.500002 3.7 33488896 0 0 0 0
2.9000001 25.500002 3.7 33488896 0 0 0 0
3 25.500002 3.7 33488896 0 0 0 0
2.7 25.200001 3.6000001 33488896 0 0 0 0
2.8000002 25.200001 3.6000001 33488896 0 0 0 0
2.9000001 25.200001 3.6000001 33488896 0 0 0 0
3 25.200001 3.6000001 33488896 0 0 0 0
2.7 25.300001 3.6000001 33488896 0 0 0 0
2.8000002 25.300001 3.6000001 33488896 0 0 0 0
2.9000001 25.300001 3.6000001 33488896 0 0 0 0
3 25.300001 3.6000001 33488896 0 0 0 0
2.7 25.400002 3.6000001 33488896 0 0 0 0
2.8000002 25.400002 3.6000001 33488896 0 0 0 0
2.9000001 25.400002 3.6000001 33488896 0 0 0 0
3 25.400002 3.6000001 33488896 0 0 0 0
2.7 25.500002 3.6000001 33488896 0 0 0 0
2.8000002 25.500002 3.6000001 33488896 0 0 0 0
2.9000001 25.500002 3.6000001 33488896 0 0 0 0
3 25.500002 3.6000001 33488896 0 0 0 0
2.7 26 4 33488896 0 0 0 0
2.8000002 26 4 33488896 0 0 0 0
2.9000001 26 4 33488896 0 0 0 0
3 26 4 33488896 0 0 0 0
2.7 26.1 4 33488896 0 0 0 0
2.8000002 26.1 4 33488896 0 0 0 0
2.9000001 26.1 4 33488896 0 0 0 0
3 26.1 4 33488896 0 0 0 0
2.7 26.200001 4 33488896 0 0 0 0
2.8000002 26.200001 4 33488896 0 0 0 0
2.9000001 26.200001 4 33488896 0 0 0 0
3 26.200001 4 33488896 0 0 0 0
2.7 26.300001 4 33488896 0 0 0 0
2.8000002 26.300001 4 33488896 0 0 0 0
2.9000001 26.300001 4 33488896 0 0 0 0
3 26.300001 4 33488896 0 0 0 0
5.9000001 24.800001 5 33488896 0 0 0 0
6 24.800001 5 33488896 0 0 0 0
6.0999999 24.800001 5 33488896 0 0 0 0
5.9000001 24.900002 5 33488896 0 0 0 0
6 24.900002 5 33488896 0 0 0 0
6.0999999 24.900002 5 33488896 0 0 0 0
5.9000001 25.000002 5 33488896 0 0 0 0
6 25.000002 5 33488896 0 0 0 0
6.0999999 25.000002 5 33488896 0 0 0 0
5.9000001 25.1 5 33488896 0 0 0 0
6 25.1 5 33488896 0 0 0 0
6.0999999 25.1 5 33488896 0 0 0 0
2.7 24.800001 3.9000001 33488896 0 0 0 0
2.8000002 24.800001 3.9000001 33488896 0 0 0 0
2.9000001 24.800001 3.9000001 33488896 0 0 0 0
3 24.800001 3.9000001 33488896 0 0 0 0
2.7 24.900002 3.9000001 33488896 0 0 0 0
2.8000002 24.900002 3.9000001 33488896 0 0 0 0
2.9000001 24.900002 3.9000001 33488896 0 0 0 0
3 24.900002 3.9000001 33488896 0 0 0 0
2.7 25.000002 3.9000001 33488896 0 0 0 0
2.8000002 25.000002 3.9000001 33488896 0 0 0 0
2.9000001 25.000002 3.9000001 33488896 0 0 0 0
3 25.000002 3.9000001 33488896 0 0 0 0
2.7 25.1 3.9000001 33488896 0 0 0 0
2.8000002 25.1 3.9000001 33488896 0 0 0 0
2.9000001 25.1 3.9000001 33488896 0 0 0 0
3 25.1 3.9000001 33488896 0 0 0 0
2.9000001 26 4.6999998 33488896 0 0 0 0
3 26 4.6999998 33488896 0 0 0 0
2.9000001 26.1 4.6999998 33488896 0 0 0 0
3 26.1 4.6999998 33488896 0 0 0 0
2.9000001 26.200001 4.6999998 33488896 0 0 0 0
3 26.200001 4.6999998 33488896 0 0 0 0
2.9000001 26.300001 4.6999998 33488896 0 0 0 0
3 26.300001 4.6999998 33488896 0 0 0 0
5.9000001 24 5.4000001 33488896 0 0 0 0
6 24 5.4000001 33488896 0 0 0 0
5.9000001 24.1 5.4000001 33488896 0 0 0 0
6 24.1 5.4000001 33488896 0 0 0 0
5.9000001 24.200001 5.4000001 33488896 0 0 0 0
6 24.200001 5.4000001 33488896 0 0 0 0
5.9000001 24.299999 5.4000001 33488896 0 0 0 0
6 24.299999 5.4000001 33488896 0 0 0 0
2.7 26 4.0999999 33488896 0 0 0 0
2.8000002 26 4.0999999 33488896 0 0 0 0
2.9000001 26 4.0999999 33488896 0 0 0 0
3 26 4.0999999 33488896 0 0 0 0
2.7 26.1 4.0999999 33488896 0 0 0 0
2.8000002 26.1 4.0999999 33488896 0 0 0 0
2.9000001 26.1 4.0999999 33488896 0 0 0 0
3 26.1 4.0999999 33488896 0 0 0 0
2.7 26.200001 4.0999999 33488896 0 0 0 0
2.8000002 26.200001 4.0999999 33488896 0 0 0 0
2.9000001 26.200001 4.0999999 33488896 0 0 0 0
3 26.200001 4.0999999 33488896 0 0 0 0
2.7 26.300001 4.0999999 33488896 0 0 0 0
2.8000002 26.300001 4.0999999 33488896 0 0 0 0
2.9000001 26.300001 4.0999999 33488896 0 0 0 0
3 26.300001 4.0999999 33488896 0 0 0 0
5.9000001 24 5.5999999 33488896 0 0 0 0
6 24 5.5999999 33488896 0 0 0 0
5.9000001 24.1 5.5999999 33488896 0 0 0 0
6 24.1 5.5999999 33488896 0 0 0 0
5.9000001 24.200001 5.5999999 33488896 0 0 0 0
6 24.200001 5.5999999 33488896 0 0 0 0
5.9000001 24.299999 5.5999999 33488896 0 0 0 0
6 24.299999 5.5999999 33488896 0 0 0 0
5.1000004 25.200001 3.4000001 33488896 0 0 0 0
5.3000002 25.200001 3.4000001 33488896 0 0 0 0
4.8000002 25.300001 3.4000001 33488896 0 0 0 0
4.9000001 25.300001 3.4000001 33488896 0 0 0 0
5 25.300001 3.4000001 33488896 0 0 0 0
5.1000004 25.300001 3.4000001 33488896 0 0 0 0
5.2000003 25.300001 3.4000001 33488896 0 0 0 0
5.4000001 25.300001 3.4000001 33488896 0 0 0 0
5.5 25.300001 3.4000001 33488896 0 0 0 0
4.8000002 25.400002 3.4000001 33488896 0 0 0 0
4.9000001 25.400002 3.4000001 33488896 0 0 0 0
5 25.400002 3.4000001 33488896 0 0 0 0
5.1000004 25.400002 3.4000001 33488896 0 0 0 0
5.2000003 25.400002 3.4000001 33488896 0 0 0 0
5.3000002 25.400002 3.4000001 33488896 0 0 0 0
5.4000001 25.400002 3.4000001 33488896 0 0 0 0
5.5 25.400002 3.4000001 33488896 0 0 0 0
4.8000002 25.500002 3.4000001 33488896 0 0 0 0
4.9000001 25.500002 3.4000001 33488896 0 0 0 0
5 25.500002 3.4000001 33488896 0 0 0 0
5.1000004 25.500002 3.4000001 33488896 0 0 0 0
5.2000003 25.500002 3.4000001 33488896 0 0 0 0
5.3000002 25.500002 3.4000001 33488896 0 0 0 0
5.4000001 25.500002 3.4000001 33488896 0 0 0 0
5.5 25.500002 3.4000001 33488896 0 0 0 0
2.7 24.800001 3.8 33488896 0 0 0 0
2.8000002 24.800001 3.8 33488896 0 0 0 0
2.9000001 24.800001 3.8 33488896 0 0 0 0
3 24.800001 3.8 33488896 0 0 0 0
2.7 24.900002 3.8 33488896 0 0 0 0
2.8000002 24.900002 3.8 33488896 0 0 0 0
2.9000001 24.900002 3.8 33488896 0 0 0 0
3 24.900002 3.8 33488896 0 0 0 0
2.7 25.000002 3.8 33488896 0 0 0 0
2.8000002 25.000002 3.8 33488896 0 0 0 0
2.9000001 25.000002 3.8 33488896 0 0 0 0
3 25.000002 3.8 33488896 0 0 0 0
2.7 25.1 3.8 33488896 0 0 0 0
2.8000002 25.1 3.8 33488896 0 0 0 0
2.9000001 25.1 3.8 33488896 0 0 0 0
3 25.1 3.8 33488896 0 0 0 0
4.8000002 25.200001 3.5 33488896 0 0 0 0
4.9000001 25.200001 3.5 33488896 0 0 0 0
5 25.200001 3.5 33488896 0 0 0 0
5.1000004 25.200001 3.5 33488896 0 0 0 0
5.2000003 25.200001 3.5 33488896 0 0 0 0
5.3000002 25.200001 3.5 33488896 0 0 0 0
5.4000001 25.200001 3.5 33488896 0 0 0 0
5.5 25.200001 3.5 33488896 0 0 0 0
4.8000002 25.300001 3.5 33488896 0 0 0 0
4.9000001 25.300001 3.5 33488896 0 0 0 0
5 25.300001 3.5 33488896 0 0 0 0
5.1000004 25.300001 3.5 33488896 0 0 0 0
5.2000003 25.300001 3.5 33488896 0 0 0 0
5.3000002 25.300001 3.5 33488896 0 0 0 0
5.4000001 25.300001 3.5 33488896 0 0 0 0
5.5 25.300001 3.5 33488896 0 0 0 0
4.8000002 25.400002 3.5 33488896 0 0 0 0
4.9000001 25.400002 3.5 33488896 0 0 0 0
5 25.400002 3.5 33488896 0 0 0 0
5.1000004 25.400002 3.5 33488896 0 0 0 0
5.2000003 25.400002 3.5 33488896 0 0 0 0
5.3000002 25.400002 3.5 33488896 0 0 0 0
5.4000001 25.400002 3.5 33488896 0 0 0 0
5.5 25.400002 3.5 33488896 0 0 0 0
4.8000002 25.500002 3.5 33488896 0 0 0 0
4.9000001 25.500002 3.5 33488896 0 0 0 0
5 25.500002 3.5 33488896 0 0 0 0
5.1000004 25.500002 3.5 33488896 0 0 0 0
5.2000003 25.500002 3.5 33488896 0 0 0 0
5.3000002 25.500002 3.5 33488896 0 0 0 0
5.4000001 25.500002 3.5 33488896 0 0 0 0
5.5 25.500002 3.5 33488896 0 0 0 0
5.9000001 24.4 5.4000001 33488896 0 0 0 0
6 24.4 5.4000001 33488896 0 0 0 0
5.9000001 24.5 5.4000001 33488896 0 0 0 0
6 24.5 5.4000001 33488896 0 0 0 0
5.9000001 24.6 5.4000001 33488896 0 0 0 0
6 24.6 5.4000001 33488896 0 0 0 0
5.9000001 24.700001 5.4000001 33488896 0 0 0 0
6 24.700001 5.4000001 33488896 0 0 0 0
5.9000001 24.800001 5.3000002 33488896 0 0 0 0
6 24.800001 5.3000002 33488896 0 0 0 0
5.9000001 24.900002 5.3000002 33488896 0 0 0 0
6 24.900002 5.3000002 33488896 0 0 0 0
5.9000001 25.000002 5.3000002 33488896 0 0 0 0
6 25.000002 5.3000002 33488896 0 0 0 0
5.9000001 25.1 5.3000002 33488896 0 0 0 0
6 25.1 5.3000002 33488896 0 0 0 0
5.9000001 24 5.3000002 33488896 0 0 0 0
6 24 5.3000002 33488896 0 0 0 0
5.9000001 24.1 5.3000002 33488896 0 0 0 0
6 24.1 5.3000002 33488896 0 0 0 0
5.9000001 24.200001 5.3000002 33488896 0 0 0 0
6 24.200001 5.3000002 33488896 0 0 0 0
5.9000001 24.299999 5.3000002 33488896 0 0 0 0
6 24.299999 5.3000002 33488896 0 0 0 0
2.7 25.6 4.1999998 33488896 0 0 0 0
2.8000002 25.6 4.1999998 33488896 0 0 0 0
2.9000001 25.6 4.1999998 33488896 0 0 0 0
3 25.6 4.1999998 33488896 0 0 0 0
2.7 25.700001 4.1999998 33488896 0 0 0 0
2.8000002 25.700001 4.1999998 33488896 0 0 0 0
2.9000001 25.700001 4.1999998 33488896 0 0 0 0
3 25.700001 4.1999998 33488896 0 0 0 0
2.7 25.800001 4.1999998 33488896 0 0 0 0
2.8000002 25.800001 4.1999998 33488896 0 0 0 0
