# .PCD v0.7 - Point Cloud Data file format
VERSION 0.7
FIELDS x y z rgb normal_x normal_y normal_z curvature
SIZE 4 4 4 4 4 4 4 4
TYPE F F F U F F F F
COUNT 1 1 1 1 1 1 1 1
WIDTH 1197
HEIGHT 1
VIEWPOINT 0 0 0 1 0 0 0
POINTS 1197
DATA ascii
10.6 11.4 1.6 4294901760 0 0 0 0
10.8 11.4 1.6 4294901760 0 0 0 0
11 11.4 1.6 4294901760 0 0 0 0
10.400001 11.599999 1.6 4294901760 0 0 0 0
10.6 11.599999 1.6 4294901760 0 0 0 0
10.8 11.599999 1.6 4294901760 0 0 0 0
11 11.599999 1.6 4294901760 0 0 0 0
10.6 11.8 1.6 4294901760 0 0 0 0
10.8 11.8 1.6 4294901760 0 0 0 0
11 11.8 1.6 4294901760 0 0 0 0
14.8 8.8000002 4.5999999 4294901760 0 0 0 0
15.000001 8.8000002 4.5999999 4294901760 0 0 0 0
15.200001 8.8000002 4.5999999 4294901760 0 0 0 0
15.400001 8.8000002 4.5999999 4294901760 0 0 0 0
14.8 9 4.5999999 4294901760 0 0 0 0
15.000001 9 4.5999999 4294901760 0 0 0 0
15.200001 9 4.5999999 4294901760 0 0 0 0
15.400001 9 4.5999999 4294901760 0 0 0 0
15.6 9 4.5999999 4294901760 0 0 0 0
14.8 9.1999998 4.5999999 4294901760 0 0 0 0
15.000001 9.1999998 4.5999999 4294901760 0 0 0 0
15.200001 9.1999998 4.5999999 4294901760 0 0 0 0
15.400001 9.1999998 4.5999999 4294901760 0 0 0 0
15.6 9.1999998 4.5999999 4294901760 0 0 0 0
14.8 9.3999996 4.5999999 4294901760 0 0 0 0
15.000001 9.3999996 4.5999999 4294901760 0 0 0 0
15.200001 9.3999996 4.5999999 4294901760 0 0 0 0
15.400001 9.3999996 4.5999999 4294901760 0 0 0 0
15.6 9.3999996 4.5999999 4294901760 0 0 0 0
14.8 8 4.5999999 4294901760 0 0 0 0
15.000001 8 4.5999999 4294901760 0 0 0 0
15.200001 8 4.5999999 4294901760 0 0 0 0
15.400001 8 4.5999999 4294901760 0 0 0 0
14.8 8.1999998 4.5999999 4294901760 0 0 0 0
15.000001 8.1999998 4.5999999 4294901760 0 0 0 0
15.200001 8.1999998 4.5999999 4294901760 0 0 0 0
15.400001 8.1999998 4.5999999 4294901760 0 0 0 0
15.6 8.1999998 4.5999999 4294901760 0 0 0 0
14.8 8.3999996 4.5999999 4294901760 0 0 0 0
15.000001 8.3999996 4.5999999 4294901760 0 0 0 0
15.200001 8.3999996 4.5999999 4294901760 0 0 0 0
15.400001 8.3999996 4.5999999 4294901760 0 0 0 0
14.8 8.6000004 4.5999999 4294901760 0 0 0 0
15.000001 8.6000004 4.5999999 4294901760 0 0 0 0
15.200001 8.6000004 4.5999999 4294901760 0 0 0 0
15.400001 8.6000004 4.5999999 4294901760 0 0 0 0
14.8 8 4.4000001 4294901760 0 0 0 0
15.000001 8 4.4000001 4294901760 0 0 0 0
15.200001 8 4.4000001 4294901760 0 0 0 0
15.400001 8 4.4000001 4294901760 0 0 0 0
14.8 8.1999998 4.4000001 4294901760 0 0 0 0
15.000001 8.1999998 4.4000001 4294901760 0 0 0 0
15.200001 8.1999998 4.4000001 4294901760 0 0 0 0
15.400001 8.1999998 4.4000001 4294901760 0 0 0 0
15.6 8.1999998 4.4000001 4294901760 0 0 0 0
14.8 8.3999996 4.4000001 4294901760 0 0 0 0
15.000001 8.3999996 4.4000001 4294901760 0 0 0 0
15.200001 8.3999996 4.4000001 4294901760 0 0 0 0
15.400001 8.3999996 4.4000001 4294901760 0 0 0 0
15.6 8.3999996 4.4000001 4294901760 0 0 0 0
14.8 8.6000004 4.4000001 4294901760 0 0 0 0
15.000001 8.6000004 4.4000001 4294901760 0 0 0 0
15.200001 8.6000004 4.4000001 4294901760 0 0 0 0
15.400001 8.6000004 4.4000001 4294901760 0 0 0 0
15.6 8.6000004 4.4000001 4294901760 0 0 0 0
11.2 11.4 2.4000001 4294901760 0 0 0 0
11.4 11.4 2.4000001 4294901760 0 0 0 0
11.599999 11.4 2.4000001 4294901760 0 0 0 0
11.8 11.4 2.4000001 4294901760 0 0 0 0
12 11.4 2.4000001 4294901760 0 0 0 0
12.2 11.4 2.4000001 4294901760 0 0 0 0
12.4 11.4 2.4000001 4294901760 0 0 0 0
12.599999 11.4 2.4000001 4294901760 0 0 0 0
11.2 11.599999 2.4000001 4294901760 0 0 0 0
11.4 11.599999 2.4000001 4294901760 0 0 0 0
11.599999 11.599999 2.4000001 4294901760 0 0 0 0
11.8 11.599999 2.4000001 4294901760 0 0 0 0
12 11.599999 2.4000001 4294901760 0 0 0 0
12.2 11.599999 2.4000001 4294901760 0 0 0 0
12.4 11.599999 2.4000001 4294901760 0 0 0 0
12.599999 11.599999 2.4000001 4294901760 0 0 0 0
11.2 11.8 2.4000001 4294901760 0 0 0 0
11.4 11.8 2.4000001 4294901760 0 0 0 0
11.599999 11.8 2.4000001 4294901760 0 0 0 0
11.8 11.8 2.4000001 4294901760 0 0 0 0
12 11.8 2.4000001 4294901760 0 0 0 0
12.2 11.8 2.4000001 4294901760 0 0 0 0
12.4 11.8 2.4000001 4294901760 0 0 0 0
12.599999 11.8 2.4000001 4294901760 0 0 0 0
14.8 8 4.2000003 4294901760 0 0 0 0
15.000001 8 4.2000003 4294901760 0 0 0 0
15.200001 8 4.2000003 4294901760 0 0 0 0
15.400001 8 4.2000003 4294901760 0 0 0 0
15.6 8 4.2000003 4294901760 0 0 0 0
14.8 8.1999998 4.2000003 4294901760 0 0 0 0
15.000001 8.1999998 4.2000003 4294901760 0 0 0 0
15.200001 8.1999998 4.2000003 4294901760 0 0 0 0
15.400001 8.1999998 4.2000003 4294901760 0 0 0 0
15.6 8.1999998 4.2000003 4294901760 0 0 0 0
14.8 8.3999996 4.2000003 4294901760 0 0 0 0
15.000001 8.3999996 4.2000003 4294901760 0 0 0 0
15.200001 8.3999996 4.2000003 4294901760 0 0 0 0
15.400001 8.3999996 4.2000003 4294901760 0 0 0 0
15.6 8.3999996 4.2000003 4294901760 0 0 0 0
15.000001 8.6000004 4.2000003 4294901760 0 0 0 0
15.200001 8.6000004 4.2000003 4294901760 0 0 0 0
15.400001 8.6000004 4.2000003 4294901760 0 0 0 0
15.6 8.6000004 4.2000003 4294901760 0 0 0 0
15.000001 8 3.6000001 4294901760 0 0 0 0
15.200001 8 3.6000001 4294901760 0 0 0 0
15.400001 8 3.6000001 4294901760 0 0 0 0
15.6 8 3.6000001 4294901760 0 0 0 0
15.000001 8.1999998 3.6000001 4294901760 0 0 0 0
15.200001 8.1999998 3.6000001 4294901760 0 0 0 0
15.400001 8.1999998 3.6000001 4294901760 0 0 0 0
15.6 8.1999998 3.6000001 4294901760 0 0 0 0
15.000001 8.3999996 3.6000001 4294901760 0 0 0 0
15.200001 8.3999996 3.6000001 4294901760 0 0 0 0
15.400001 8.3999996 3.6000001 4294901760 0 0 0 0
15.6 8.3999996 3.6000001 4294901760 0 0 0 0
15.000001 8.6000004 3.6000001 4294901760 0 0 0 0
15.200001 8.6000004 3.6000001 4294901760 0 0 0 0
15.400001 8.6000004 3.6000001 4294901760 0 0 0 0
15.6 8.6000004 3.6000001 4294901760 0 0 0 0
15.000001 8 3.8 4294901760 0 0 0 0
15.200001 8 3.8 4294901760 0 0 0 0
15.400001 8 3.8 4294901760 0 0 0 0
15.6 8 3.8 4294901760 0 0 0 0
15.000001 8.1999998 3.8 4294901760 0 0 0 0
15.200001 8.1999998 3.8 4294901760 0 0 0 0
15.400001 8.1999998 3.8 4294901760 0 0 0 0
15.6 8.1999998 3.8 4294901760 0 0 0 0
15.000001 8.3999996 3.8 4294901760 0 0 0 0
15.200001 8.3999996 3.8 4294901760 0 0 0 0
15.400001 8.3999996 3.8 4294901760 0 0 0 0
15.6 8.3999996 3.8 4294901760 0 0 0 0
15.000001 8.6000004 3.8 4294901760 0 0 0 0
15.200001 8.6000004 3.8 4294901760 0 0 0 0
15.400001 8.6000004 3.8 4294901760 0 0 0 0
15.6 8.6000004 3.8 4294901760 0 0 0 0
11.2 11.4 2.6000001 4294901760 0 0 0 0
11.4 11.4 2.6000001 4294901760 0 0 0 0
11.599999 11.4 2.6000001 4294901760 0 0 0 0
11.8 11.4 2.6000001 4294901760 0 0 0 0
12 11.4 2.6000001 4294901760 0 0 0 0
12.2 11.4 2.6000001 4294901760 0 0 0 0
12.4 11.4 2.6000001 4294901760 0 0 0 0
12.599999 11.4 2.6000001 4294901760 0 0 0 0
11.2 11.599999 2.6000001 4294901760 0 0 0 0
11.4 11.599999 2.6000001 4294901760 0 0 0 0
11.599999 11.599999 2.6000001 4294901760 0 0 0 0
11.8 11.599999 2.6000001 4294901760 0 0 0 0
12 11.599999 2.6000001 4294901760 0 0 0 0
12.2 11.599999 2.6000001 4294901760 0 0 0 0
12.4 11.599999 2.6000001 4294901760 0 0 0 0
12.599999 11.599999 2.6000001 4294901760 0 0 0 0
11.2 11.8 2.6000001 4294901760 0 0 0 0
11.4 11.8 2.6000001 4294901760 0 0 0 0
11.599999 11.8 2.6000001 4294901760 0 0 0 0
11.8 11.8 2.6000001 4294901760 0 0 0 0
12 11.8 2.6000001 4294901760 0 0 0 0
12.2 11.8 2.6000001 4294901760 0 0 0 0
12.4 11.8 2.6000001 4294901760 0 0 0 0
12.599999 11.8 2.6000001 4294901760 0 0 0 0
11.2 11.4 2.8 4294901760 0 0 0 0
11.4 11.4 2.8 4294901760 0 0 0 0
11.599999 11.4 2.8 4294901760 0 0 0 0
11.8 11.4 2.8 4294901760 0 0 0 0
12 11.4 2.8 4294901760 0 0 0 0
12.2 11.4 2.8 4294901760 0 0 0 0
12.4 11.4 2.8 4294901760 0 0 0 0
12.599999 11.4 2.8 4294901760 0 0 0 0
11.2 11.599999 2.8 4294901760 0 0 0 0
11.4 11.599999 2.8 4294901760 0 0 0 0
11.599999 11.599999 2.8 4294901760 0 0 0 0
11.8 11.599999 2.8 4294901760 0 0 0 0
12 11.599999 2.8 4294901760 0 0 0 0
12.2 11.599999 2.8 4294901760 0 0 0 0
12.4 11.599999 2.8 4294901760 0 0 0 0
12.599999 11.599999 2.8 4294901760 0 0 0 0
11.2 11.8 2.8 4294901760 0 0 0 0
11.4 11.8 2.8 4294901760 0 0 0 0
11.599999 11.8 2.8 4294901760 0 0 0 0
11.8 11.8 2.8 4294901760 0 0 0 0
12 11.8 2.8 4294901760 0 0 0 0
12.2 11.8 2.8 4294901760 0 0 0 0
12.4 11.8 2.8 4294901760 0 0 0 0
12.599999 11.8 2.8 4294901760 0 0 0 0
15.000001 8 4 4294901760 0 0 0 0
15.200001 8 4 4294901760 0 0 0 0
15.400001 8 4 4294901760 0 0 0 0
15.6 8 4 4294901760 0 0 0 0
15.000001 8.1999998 4 4294901760 0 0 0 0
15.200001 8.1999998 4 4294901760 0 0 0 0
15.400001 8.1999998 4 4294901760 0 0 0 0
15.6 8.1999998 4 4294901760 0 0 0 0
15.000001 8.3999996 4 4294901760 0 0 0 0
15.200001 8.3999996 4 4294901760 0 0 0 0
15.400001 8.3999996 4 4294901760 0 0 0 0
15.6 8.3999996 4 4294901760 0 0 0 0
15.000001 8.6000004 4 4294901760 0 0 0 0
15.200001 8.6000004 4 4294901760 0 0 0 0
15.400001 8.6000004 4 4294901760 0 0 0 0
15.6 8.6000004 4 4294901760 0 0 0 0
15.000001 8 3.2 4294901760 0 0 0 0
15.200001 8 3.2 4294901760 0 0 0 0
15.400001 8 3.2 4294901760 0 0 0 0
15.6 8 3.2 4294901760 0 0 0 0
15.000001 8.1999998 3.2 4294901760 0 0 0 0
15.200001 8.1999998 3.2 4294901760 0 0 0 0
15.400001 8.1999998 3.2 4294901760 0 0 0 0
15.6 8.1999998 3.2 4294901760 0 0 0 0
15.000001 8.3999996 3.2 4294901760 0 0 0 0
15.200001 8.3999996 3.2 4294901760 0 0 0 0
15.400001 8.3999996 3.2 4294901760 0 0 0 0
15.6 8.3999996 3.2 4294901760 0 0 0 0
15.000001 8.6000004 3.2 4294901760 0 0 0 0
15.200001 8.6000004 3.2 4294901760 0 0 0 0
15.400001 8.6000004 3.2 4294901760 0 0 0 0
15.6 8.6000004 3.2 4294901760 0 0 0 0
11.2 11.4 3 4294901760 0 0 0 0
11.4 11.4 3 4294901760 0 0 0 0
11.599999 11.4 3 4294901760 0 0 0 0
11.8 11.4 3 4294901760 0 0 0 0
12 11.4 3 4294901760 0 0 0 0
12.2 11.4 3 4294901760 0 0 0 0
12.4 11.4 3 4294901760 0 0 0 0
12.599999 11.4 3 4294901760 0 0 0 0
11.2 11.599999 3 4294901760 0 0 0 0
11.4 11.599999 3 4294901760 0 0 0 0
11.599999 11.599999 3 4294901760 0 0 0 0
11.8 11.599999 3 4294901760 0 0 0 0
12 11.599999 3 4294901760 0 0 0 0
12.2 11.599999 3 4294901760 0 0 0 0
12.4 11.599999 3 4294901760 0 0 0 0
12.599999 11.599999 3 4294901760 0 0 0 0
11.2 11.8 3 4294901760 0 0 0 0
11.4 11.8 3 4294901760 0 0 0 0
11.599999 11.8 3 4294901760 0 0 0 0
11.8 11.8 3 4294901760 0 0 0 0
12 11.8 3 4294901760 0 0 0 0
12.2 11.8 3 4294901760 0 0 0 0
12.4 11.8 3 4294901760 0 0 0 0
12.599999 11.8 3 4294901760 0 0 0 0
14.8 11.2 4 4294901760 0 0 0 0
15.000001 11.2 4 4294901760 0 0 0 0
15.200001 11.2 4 4294901760 0 0 0 0
15.400001 11.2 4 4294901760 0 0 0 0
15.6 11.2 4 4294901760 0 0 0 0
14.400001 11.4 4 4294901760 0 0 0 0
14.6 11.4 4 4294901760 0 0 0 0
14.8 11.4 4 4294901760 0 0 0 0
15.000001 11.4 4 4294901760 0 0 0 0
15.200001 11.4 4 4294901760 0 0 0 0
15.400001 11.4 4 4294901760 0 0 0 0
15.6 11.4 4 4294901760 0 0 0 0
14.400001 11.599999 4 4294901760 0 0 0 0
14.6 11.599999 4 4294901760 0 0 0 0
14.8 11.599999 4 4294901760 0 0 0 0
15.000001 11.599999 4 4294901760 0 0 0 0
15.200001 11.599999 4 4294901760 0 0 0 0
15.400001 11.599999 4 4294901760 0 0 0 0
15.6 11.599999 4 4294901760 0 0 0 0
14.400001 11.8 4 4294901760 0 0 0 0
14.6 11.8 4 4294901760 0 0 0 0
14.8 11.8 4 4294901760 0 0 0 0
15.000001 11.8 4 4294901760 0 0 0 0
15.200001 11.8 4 4294901760 0 0 0 0
15.400001 11.8 4 4294901760 0 0 0 0
15.6 11.8 4 4294901760 0 0 0 0
14.8 9.6000004 4.4000001 4294901760 0 0 0 0
15.000001 9.6000004 4.4000001 4294901760 0 0 0 0
15.200001 9.6000004 4.4000001 4294901760 0 0 0 0
15.400001 9.6000004 4.4000001 4294901760 0 0 0 0
15.6 9.6000004 4.4000001 4294901760 0 0 0 0
14.8 9.8000002 4.4000001 4294901760 0 0 0 0
15.000001 9.8000002 4.4000001 4294901760 0 0 0 0
15.200001 9.8000002 4.4000001 4294901760 0 0 0 0
15.400001 9.8000002 4.4000001 4294901760 0 0 0 0
15.6 9.8000002 4.4000001 4294901760 0 0 0 0
14.8 10 4.4000001 4294901760 0 0 0 0
15.000001 10 4.4000001 4294901760 0 0 0 0
15.200001 10 4.4000001 4294901760 0 0 0 0
15.400001 10 4.4000001 4294901760 0 0 0 0
15.6 10 4.4000001 4294901760 0 0 0 0
14.8 10.200001 4.4000001 4294901760 0 0 0 0
15.000001 10.200001 4.4000001 4294901760 0 0 0 0
15.200001 10.200001 4.4000001 4294901760 0 0 0 0
15.400001 10.200001 4.4000001 4294901760 0 0 0 0
15.6 10.200001 4.4000001 4294901760 0 0 0 0
15.000001 9.6000004 3.6000001 4294901760 0 0 0 0
15.200001 9.6000004 3.6000001 4294901760 0 0 0 0
15.400001 9.6000004 3.6000001 4294901760 0 0 0 0
15.6 9.6000004 3.6000001 4294901760 0 0 0 0
14.8 9.8000002 3.6000001 4294901760 0 0 0 0
15.000001 9.8000002 3.6000001 4294901760 0 0 0 0
15.200001 9.8000002 3.6000001 4294901760 0 0 0 0
15.400001 9.8000002 3.6000001 4294901760 0 0 0 0
15.6 9.8000002 3.6000001 4294901760 0 0 0 0
15.000001 10 3.6000001 4294901760 0 0 0 0
15.200001 10 3.6000001 4294901760 0 0 0 0
15.400001 10 3.6000001 4294901760 0 0 0 0
15.6 10 3.6000001 4294901760 0 0 0 0
14.8 10.200001 3.6000001 4294901760 0 0 0 0
15.000001 10.200001 3.6000001 4294901760 0 0 0 0
15.200001 10.200001 3.6000001 4294901760 0 0 0 0
15.400001 10.200001 3.6000001 4294901760 0 0 0 0
15.6 10.200001 3.6000001 4294901760 0 0 0 0
14.8 9.6000004 5 4294901760 0 0 0 0
15.000001 9.6000004 5 4294901760 0 0 0 0
15.200001 9.6000004 5 4294901760 0 0 0 0
15.400001 9.6000004 5 4294901760 0 0 0 0
14.8 9.8000002 5 4294901760 0 0 0 0
15.000001 9.8000002 5 4294901760 0 0 0 0
15.200001 9.8000002 5 4294901760 0 0 0 0
15.400001 9.8000002 5 4294901760 0 0 0 0
14.8 9.6000004 4.8000002 4294901760 0 0 0 0
15.000001 9.6000004 4.8000002 4294901760 0 0 0 0
15.200001 9.6000004 4.8000002 4294901760 0 0 0 0
15.400001 9.6000004 4.8000002 4294901760 0 0 0 0
14.8 9.8000002 4.8000002 4294901760 0 0 0 0
15.000001 9.8000002 4.8000002 4294901760 0 0 0 0
15.200001 9.8000002 4.8000002 4294901760 0 0 0 0
15.400001 9.8000002 4.8000002 4294901760 0 0 0 0
15.6 10 4.8000002 4294901760 0 0 0 0
14.8 9.6000004 5.8000002 4294901760 0 0 0 0
15.000001 9.6000004 5.8000002 4294901760 0 0 0 0
14.8 9.8000002 5.8000002 4294901760 0 0 0 0
15.000001 9.8000002 5.8000002 4294901760 0 0 0 0
14.8 9.6000004 5.6000004 4294901760 0 0 0 0
15.000001 9.6000004 5.6000004 4294901760 0 0 0 0
15.200001 9.6000004 5.6000004 4294901760 0 0 0 0
14.8 9.8000002 5.6000004 4294901760 0 0 0 0
15.000001 9.8000002 5.6000004 4294901760 0 0 0 0
15.200001 9.8000002 5.6000004 4294901760 0 0 0 0
14.8 9.6000004 5.4000001 4294901760 0 0 0 0
15.000001 9.6000004 5.4000001 4294901760 0 0 0 0
15.200001 9.6000004 5.4000001 4294901760 0 0 0 0
15.400001 9.6000004 5.4000001 4294901760 0 0 0 0
14.8 9.8000002 5.4000001 4294901760 0 0 0 0
15.000001 9.8000002 5.4000001 4294901760 0 0 0 0
15.200001 9.8000002 5.4000001 4294901760 0 0 0 0
15.400001 9.8000002 5.4000001 4294901760 0 0 0 0
14.8 9.6000004 1.8000001 4294901760 0 0 0 0
15.000001 9.6000004 1.8000001 4294901760 0 0 0 0
15.200001 9.6000004 1.8000001 4294901760 0 0 0 0
15.400001 9.6000004 1.8000001 4294901760 0 0 0 0
15.6 9.6000004 1.8000001 4294901760 0 0 0 0
14.8 9.8000002 1.8000001 4294901760 0 0 0 0
15.000001 9.8000002 1.8000001 4294901760 0 0 0 0
15.200001 9.8000002 1.8000001 4294901760 0 0 0 0
15.400001 9.8000002 1.8000001 4294901760 0 0 0 0
15.6 9.8000002 1.8000001 4294901760 0 0 0 0
14.8 10 1.8000001 4294901760 0 0 0 0
15.000001 10 1.8000001 4294901760 0 0 0 0
15.200001 10 1.8000001 4294901760 0 0 0 0
15.400001 10 1.8000001 4294901760 0 0 0 0
15.6 10 1.8000001 4294901760 0 0 0 0
14.8 10.200001 1.8000001 4294901760 0 0 0 0
15.000001 10.200001 1.8000001 4294901760 0 0 0 0
15.200001 10.200001 1.8000001 4294901760 0 0 0 0
15.400001 10.200001 1.8000001 4294901760 0 0 0 0
15.6 10.200001 1.8000001 4294901760 0 0 0 0
14.8 9.6000004 1.6 4294901760 0 0 0 0
15.000001 9.6000004 1.6 4294901760 0 0 0 0
15.200001 9.6000004 1.6 4294901760 0 0 0 0
15.400001 9.6000004 1.6 4294901760 0 0 0 0
15.6 9.6000004 1.6 4294901760 0 0 0 0
14.8 9.8000002 1.6 4294901760 0 0 0 0
15.000001 9.8000002 1.6 4294901760 0 0 0 0
15.200001 9.8000002 1.6 4294901760 0 0 0 0
15.400001 9.8000002 1.6 4294901760 0 0 0 0
15.6 9.8000002 1.6 4294901760 0 0 0 0
14.8 10 1.6 4294901760 0 0 0 0
15.000001 10 1.6 4294901760 0 0 0 0
15.200001 10 1.6 4294901760 0 0 0 0
15.400001 10 1.6 4294901760 0 0 0 0
15.6 10 1.6 4294901760 0 0 0 0
14.8 10.200001 1.6 4294901760 0 0 0 0
15.000001 10.200001 1.6 4294901760 0 0 0 0
15.200001 10.200001 1.6 4294901760 0 0 0 0
15.400001 10.200001 1.6 4294901760 0 0 0 0
15.6 10.200001 1.6 4294901760 0 0 0 0
14.8 9.6000004 6 4294901760 0 0 0 0
15.000001 9.6000004 6 4294901760 0 0 0 0
14.8 9.8000002 6 4294901760 0 0 0 0
14.8 9.6000004 5.2000003 4294901760 0 0 0 0
15.000001 9.6000004 5.2000003 4294901760 0 0 0 0
15.200001 9.6000004 5.2000003 4294901760 0 0 0 0
15.400001 9.6000004 5.2000003 4294901760 0 0 0 0
14.8 9.8000002 5.2000003 4294901760 0 0 0 0
15.000001 9.8000002 5.2000003 4294901760 0 0 0 0
15.200001 9.8000002 5.2000003 4294901760 0 0 0 0
15.400001 9.8000002 5.2000003 4294901760 0 0 0 0
14.8 9.6000004 3.8 4294901760 0 0 0 0
15.000001 9.6000004 3.8 4294901760 0 0 0 0
15.200001 9.6000004 3.8 4294901760 0 0 0 0
15.400001 9.6000004 3.8 4294901760 0 0 0 0
15.6 9.6000004 3.8 4294901760 0 0 0 0
14.8 9.8000002 3.8 4294901760 0 0 0 0
15.000001 9.8000002 3.8 4294901760 0 0 0 0
15.200001 9.8000002 3.8 4294901760 0 0 0 0
15.400001 9.8000002 3.8 4294901760 0 0 0 0
15.6 9.8000002 3.8 4294901760 0 0 0 0
14.8 10 3.8 4294901760 0 0 0 0
15.000001 10 3.8 4294901760 0 0 0 0
15.200001 10 3.8 4294901760 0 0 0 0
15.400001 10 3.8 4294901760 0 0 0 0
15.6 10 3.8 4294901760 0 0 0 0
14.8 10.200001 3.8 4294901760 0 0 0 0
15.000001 10.200001 3.8 4294901760 0 0 0 0
15.200001 10.200001 3.8 4294901760 0 0 0 0
15.400001 10.200001 3.8 4294901760 0 0 0 0
15.6 10.200001 3.8 4294901760 0 0 0 0
15.000001 9.6000004 3.2 4294901760 0 0 0 0
15.200001 9.6000004 3.2 4294901760 0 0 0 0
15.400001 9.6000004 3.2 4294901760 0 0 0 0
15.6 9.6000004 3.2 4294901760 0 0 0 0
15.000001 9.8000002 3.2 4294901760 0 0 0 0
15.200001 9.8000002 3.2 4294901760 0 0 0 0
15.400001 9.8000002 3.2 4294901760 0 0 0 0
15.6 9.8000002 3.2 4294901760 0 0 0 0
15.000001 10 3.2 4294901760 0 0 0 0
15.200001 10 3.2 4294901760 0 0 0 0
15.400001 10 3.2 4294901760 0 0 0 0
15.6 10 3.2 4294901760 0 0 0 0
15.000001 10.200001 3.2 4294901760 0 0 0 0
15.200001 10.200001 3.2 4294901760 0 0 0 0
15.400001 10.200001 3.2 4294901760 0 0 0 0
15.6 10.200001 3.2 4294901760 0 0 0 0
15.000001 9.6000004 3.4000001 4294901760 0 0 0 0
15.200001 9.6000004 3.4000001 4294901760 0 0 0 0
15.400001 9.6000004 3.4000001 4294901760 0 0 0 0
15.6 9.6000004 3.4000001 4294901760 0 0 0 0
14.8 9.8000002 3.4000001 4294901760 0 0 0 0
15.000001 9.8000002 3.4000001 4294901760 0 0 0 0
15.200001 9.8000002 3.4000001 4294901760 0 0 0 0
15.400001 9.8000002 3.4000001 4294901760 0 0 0 0
15.6 9.8000002 3.4000001 4294901760 0 0 0 0
15.000001 10 3.4000001 4294901760 0 0 0 0
15.200001 10 3.4000001 4294901760 0 0 0 0
15.400001 10 3.4000001 4294901760 0 0 0 0
15.6 10 3.4000001 4294901760 0 0 0 0
15.000001 10.200001 3.4000001 4294901760 0 0 0 0
15.200001 10.200001 3.4000001 4294901760 0 0 0 0
15.400001 10.200001 3.4000001 4294901760 0 0 0 0
15.6 10.200001 3.4000001 4294901760 0 0 0 0
14.8 9.6000004 4 4294901760 0 0 0 0
15.000001 9.6000004 4 4294901760 0 0 0 0
15.200001 9.6000004 4 4294901760 0 0 0 0
15.400001 9.6000004 4 4294901760 0 0 0 0
15.6 9.6000004 4 4294901760 0 0 0 0
14.8 9.8000002 4 4294901760 0 0 0 0
15.000001 9.8000002 4 4294901760 0 0 0 0
15.200001 9.8000002 4 4294901760 0 0 0 0
15.400001 9.8000002 4 4294901760 0 0 0 0
15.6 9.8000002 4 4294901760 0 0 0 0
14.8 10 4 4294901760 0 0 0 0
15.000001 10 4 4294901760 0 0 0 0
15.200001 10 4 4294901760 0 0 0 0
15.400001 10 4 4294901760 0 0 0 0
15.6 10 4 4294901760 0 0 0 0
14.8 10.200001 4 4294901760 0 0 0 0
15.000001 10.200001 4 4294901760 0 0 0 0
15.200001 10.200001 4 4294901760 0 0 0 0
15.400001 10.200001 4 4294901760 0 0 0 0
15.6 10.200001 4 4294901760 0 0 0 0
11 12 1.6 4294901760 0 0 0 0
12.8 12 3.2 4294901760 0 0 0 0
13 12 3.2 4294901760 0 0 0 0
13.2 12 3.2 4294901760 0 0 0 0
13.400001 12 3.2 4294901760 0 0 0 0
6.4000001 11.4 3.6000001 4294901760 0 0 0 0
6.5999999 11.4 3.6000001 4294901760 0 0 0 0
6.8000002 11.4 3.6000001 4294901760 0 0 0 0
7 11.4 3.6000001 4294901760 0 0 0 0
7.2000003 11.4 3.6000001 4294901760 0 0 0 0
7.4000001 11.4 3.6000001 4294901760 0 0 0 0
7.5999999 11.4 3.6000001 4294901760 0 0 0 0
7.8000002 11.4 3.6000001 4294901760 0 0 0 0
7.5999999 11.599999 3.6000001 4294901760 0 0 0 0
7.8000002 11.599999 3.6000001 4294901760 0 0 0 0
6.4000001 11.4 3.4000001 4294901760 0 0 0 0
6.5999999 11.4 3.4000001 4294901760 0 0 0 0
6.8000002 11.4 3.4000001 4294901760 0 0 0 0
7 11.4 3.4000001 4294901760 0 0 0 0
7.2000003 11.4 3.4000001 4294901760 0 0 0 0
7.4000001 11.4 3.4000001 4294901760 0 0 0 0
7.5999999 11.4 3.4000001 4294901760 0 0 0 0
7.8000002 11.4 3.4000001 4294901760 0 0 0 0
7.5999999 11.599999 3.4000001 4294901760 0 0 0 0
7.8000002 11.599999 3.4000001 4294901760 0 0 0 0
14.8 8 5.8000002 4294901760 0 0 0 0
15.000001 8 5.8000002 4294901760 0 0 0 0
14.8 8.1999998 5.8000002 4294901760 0 0 0 0
15.000001 8.1999998 5.8000002 4294901760 0 0 0 0
14.8 8.3999996 5.8000002 4294901760 0 0 0 0
15.000001 8.3999996 5.8000002 4294901760 0 0 0 0
14.8 8.6000004 5.8000002 4294901760 0 0 0 0
15.000001 8.6000004 5.8000002 4294901760 0 0 0 0
6.4000001 11.4 3.8 4294901760 0 0 0 0
6.5999999 11.4 3.8 4294901760 0 0 0 0
6.8000002 11.4 3.8 4294901760 0 0 0 0
7 11.4 3.8 4294901760 0 0 0 0
7.2000003 11.4 3.8 4294901760 0 0 0 0
7.4000001 11.4 3.8 4294901760 0 0 0 0
7.5999999 11.4 3.8 4294901760 0 0 0 0
7.8000002 11.4 3.8 4294901760 0 0 0 0
7.5999999 11.599999 3.8 4294901760 0 0 0 0
7.8000002 11.599999 3.8 4294901760 0 0 0 0
14.8 8 6 4294901760 0 0 0 0
14.8 8.1999998 6 4294901760 0 0 0 0
14.8 8.3999996 6 4294901760 0 0 0 0
14.8 8.6000004 6 4294901760 0 0 0 0
10.6 12 2 4294901760 0 0 0 0
10.8 12 2 4294901760 0 0 0 0
11 12 2 4294901760 0 0 0 0
10.8 12 2.6000001 4294901760 0 0 0 0
11 12 2.6000001 4294901760 0 0 0 0
14.8 8 6.2000003 4294901760 0 0 0 0
14.8 8.1999998 6.2000003 4294901760 0 0 0 0
14.8 8.3999996 6.2000003 4294901760 0 0 0 0
14.8 8.6000004 6.2000003 4294901760 0 0 0 0
11.2 11.2 1.6 4294901760 0 0 0 0
11.4 11.2 1.6 4294901760 0 0 0 0
11.2 11.4 1.6 4294901760 0 0 0 0
11.4 11.4 1.6 4294901760 0 0 0 0
11.599999 11.4 1.6 4294901760 0 0 0 0
11.8 11.4 1.6 4294901760 0 0 0 0
12 11.4 1.6 4294901760 0 0 0 0
12.2 11.4 1.6 4294901760 0 0 0 0
12.4 11.4 1.6 4294901760 0 0 0 0
12.599999 11.4 1.6 4294901760 0 0 0 0
11.2 11.599999 1.6 4294901760 0 0 0 0
11.4 11.599999 1.6 4294901760 0 0 0 0
11.599999 11.599999 1.6 4294901760 0 0 0 0
11.8 11.599999 1.6 4294901760 0 0 0 0
12 11.599999 1.6 4294901760 0 0 0 0
12.2 11.599999 1.6 4294901760 0 0 0 0
12.4 11.599999 1.6 4294901760 0 0 0 0
12.599999 11.599999 1.6 4294901760 0 0 0 0
11.2 11.8 1.6 4294901760 0 0 0 0
11.4 11.8 1.6 4294901760 0 0 0 0
11.599999 11.8 1.6 4294901760 0 0 0 0
11.8 11.8 1.6 4294901760 0 0 0 0
12 11.8 1.6 4294901760 0 0 0 0
12.2 11.8 1.6 4294901760 0 0 0 0
12.4 11.8 1.6 4294901760 0 0 0 0
12.599999 11.8 1.6 4294901760 0 0 0 0
11.2 11.4 2 4294901760 0 0 0 0
11.4 11.4 2 4294901760 0 0 0 0
11.599999 11.4 2 4294901760 0 0 0 0
11.8 11.4 2 4294901760 0 0 0 0
12 11.4 2 4294901760 0 0 0 0
12.2 11.4 2 4294901760 0 0 0 0
12.4 11.4 2 4294901760 0 0 0 0
12.599999 11.4 2 4294901760 0 0 0 0
11.2 11.599999 2 4294901760 0 0 0 0
11.4 11.599999 2 4294901760 0 0 0 0
11.599999 11.599999 2 4294901760 0 0 0 0
11.8 11.599999 2 4294901760 0 0 0 0
12 11.599999 2 4294901760 0 0 0 0
12.2 11.599999 2 4294901760 0 0 0 0
12.4 11.599999 2 4294901760 0 0 0 0
12.599999 11.599999 2 4294901760 0 0 0 0
11.2 11.8 2 4294901760 0 0 0 0
11.4 11.8 2 4294901760 0 0 0 0
11.599999 11.8 2 4294901760 0 0 0 0
11.8 11.8 2 4294901760 0 0 0 0
12 11.8 2 4294901760 0 0 0 0
12.2 11.8 2 4294901760 0 0 0 0
12.4 11.8 2 4294901760 0 0 0 0
12.599999 11.8 2 4294901760 0 0 0 0
14.8 10.400001 3.2 4294901760 0 0 0 0
15.000001 10.400001 3.2 4294901760 0 0 0 0
15.200001 10.400001 3.2 4294901760 0 0 0 0
15.400001 10.400001 3.2 4294901760 0 0 0 0
15.6 10.400001 3.2 4294901760 0 0 0 0
14.8 10.6 3.2 4294901760 0 0 0 0
15.000001 10.6 3.2 4294901760 0 0 0 0
15.200001 10.6 3.2 4294901760 0 0 0 0
15.400001 10.6 3.2 4294901760 0 0 0 0
15.6 10.6 3.2 4294901760 0 0 0 0
14.8 10.8 3.2 4294901760 0 0 0 0
15.000001 10.8 3.2 4294901760 0 0 0 0
15.200001 10.8 3.2 4294901760 0 0 0 0
15.400001 10.8 3.2 4294901760 0 0 0 0
15.6 10.8 3.2 4294901760 0 0 0 0
14.8 11 3.2 4294901760 0 0 0 0
15.000001 11 3.2 4294901760 0 0 0 0
15.200001 11 3.2 4294901760 0 0 0 0
15.400001 11 3.2 4294901760 0 0 0 0
15.6 11 3.2 4294901760 0 0 0 0
14.8 9.6000004 4.2000003 4294901760 0 0 0 0
15.000001 9.6000004 4.2000003 4294901760 0 0 0 0
15.200001 9.6000004 4.2000003 4294901760 0 0 0 0
15.400001 9.6000004 4.2000003 4294901760 0 0 0 0
15.6 9.6000004 4.2000003 4294901760 0 0 0 0
14.8 9.8000002 4.2000003 4294901760 0 0 0 0
15.000001 9.8000002 4.2000003 4294901760 0 0 0 0
15.200001 9.8000002 4.2000003 4294901760 0 0 0 0
15.400001 9.8000002 4.2000003 4294901760 0 0 0 0
15.6 9.8000002 4.2000003 4294901760 0 0 0 0
14.8 10 4.2000003 4294901760 0 0 0 0
15.000001 10 4.2000003 4294901760 0 0 0 0
15.200001 10 4.2000003 4294901760 0 0 0 0
15.400001 10 4.2000003 4294901760 0 0 0 0
15.6 10 4.2000003 4294901760 0 0 0 0
14.8 10.200001 4.2000003 4294901760 0 0 0 0
15.000001 10.200001 4.2000003 4294901760 0 0 0 0
15.200001 10.200001 4.2000003 4294901760 0 0 0 0
15.400001 10.200001 4.2000003 4294901760 0 0 0 0
15.6 10.200001 4.2000003 4294901760 0 0 0 0
10.8 12 1.8000001 4294901760 0 0 0 0
11 12 1.8000001 4294901760 0 0 0 0
14.8 10.400001 3.4000001 4294901760 0 0 0 0
15.000001 10.400001 3.4000001 4294901760 0 0 0 0
15.200001 10.400001 3.4000001 4294901760 0 0 0 0
15.400001 10.400001 3.4000001 4294901760 0 0 0 0
15.6 10.400001 3.4000001 4294901760 0 0 0 0
14.8 10.6 3.4000001 4294901760 0 0 0 0
15.000001 10.6 3.4000001 4294901760 0 0 0 0
15.200001 10.6 3.4000001 4294901760 0 0 0 0
15.400001 10.6 3.4000001 4294901760 0 0 0 0
15.6 10.6 3.4000001 4294901760 0 0 0 0
14.8 10.8 3.4000001 4294901760 0 0 0 0
15.000001 10.8 3.4000001 4294901760 0 0 0 0
15.200001 10.8 3.4000001 4294901760 0 0 0 0
15.400001 10.8 3.4000001 4294901760 0 0 0 0
15.6 10.8 3.4000001 4294901760 0 0 0 0
14.8 11 3.4000001 4294901760 0 0 0 0
15.000001 11 3.4000001 4294901760 0 0 0 0
15.200001 11 3.4000001 4294901760 0 0 0 0
15.400001 11 3.4000001 4294901760 0 0 0 0
15.6 11 3.4000001 4294901760 0 0 0 0
6.4000001 11.4 3.2 4294901760 0 0 0 0
6.5999999 11.4 3.2 4294901760 0 0 0 0
6.8000002 11.4 3.2 4294901760 0 0 0 0
7 11.4 3.2 4294901760 0 0 0 0
7.2000003 11.4 3.2 4294901760 0 0 0 0
7.4000001 11.4 3.2 4294901760 0 0 0 0
7.5999999 11.4 3.2 4294901760 0 0 0 0
7.8000002 11.4 3.2 4294901760 0 0 0 0
7.4000001 11.599999 3.2 4294901760 0 0 0 0
7.5999999 11.599999 3.2 4294901760 0 0 0 0
7.8000002 11.599999 3.2 4294901760 0 0 0 0
14.8 10.400001 3.8 4294901760 0 0 0 0
15.000001 10.400001 3.8 4294901760 0 0 0 0
15.200001 10.400001 3.8 4294901760 0 0 0 0
15.400001 10.400001 3.8 4294901760 0 0 0 0
15.6 10.400001 3.8 4294901760 0 0 0 0
14.8 10.6 3.8 4294901760 0 0 0 0
15.000001 10.6 3.8 4294901760 0 0 0 0
15.200001 10.6 3.8 4294901760 0 0 0 0
15.400001 10.6 3.8 4294901760 0 0 0 0
15.6 10.6 3.8 4294901760 0 0 0 0
14.8 10.8 3.8 4294901760 0 0 0 0
15.000001 10.8 3.8 4294901760 0 0 0 0
15.200001 10.8 3.8 4294901760 0 0 0 0
15.400001 10.8 3.8 4294901760 0 0 0 0
15.6 10.8 3.8 4294901760 0 0 0 0
14.8 11 3.8 4294901760 0 0 0 0
15.000001 11 3.8 4294901760 0 0 0 0
15.200001 11 3.8 4294901760 0 0 0 0
15.400001 11 3.8 4294901760 0 0 0 0
15.6 11 3.8 4294901760 0 0 0 0
11.2 11.4 1.8000001 4294901760 0 0 0 0
11.4 11.4 1.8000001 4294901760 0 0 0 0
11.599999 11.4 1.8000001 4294901760 0 0 0 0
11.8 11.4 1.8000001 4294901760 0 0 0 0
12 11.4 1.8000001 4294901760 0 0 0 0
12.2 11.4 1.8000001 4294901760 0 0 0 0
12.4 11.4 1.8000001 4294901760 0 0 0 0
12.599999 11.4 1.8000001 4294901760 0 0 0 0
11.2 11.599999 1.8000001 4294901760 0 0 0 0
11.4 11.599999 1.8000001 4294901760 0 0 0 0
11.599999 11.599999 1.8000001 4294901760 0 0 0 0
11.8 11.599999 1.8000001 4294901760 0 0 0 0
12 11.599999 1.8000001 4294901760 0 0 0 0
12.2 11.599999 1.8000001 4294901760 0 0 0 0
12.4 11.599999 1.8000001 4294901760 0 0 0 0
12.599999 11.599999 1.8000001 4294901760 0 0 0 0
11.2 11.8 1.8000001 4294901760 0 0 0 0
11.4 11.8 1.8000001 4294901760 0 0 0 0
11.599999 11.8 1.8000001 4294901760 0 0 0 0
11.8 11.8 1.8000001 4294901760 0 0 0 0
12 11.8 1.8000001 4294901760 0 0 0 0
12.2 11.8 1.8000001 4294901760 0 0 0 0
12.4 11.8 1.8000001 4294901760 0 0 0 0
12.599999 11.8 1.8000001 4294901760 0 0 0 0
14.8 10.400001 4 4294901760 0 0 0 0
15.000001 10.400001 4 4294901760 0 0 0 0
15.200001 10.400001 4 4294901760 0 0 0 0
15.400001 10.400001 4 4294901760 0 0 0 0
15.6 10.400001 4 4294901760 0 0 0 0
14.8 10.6 4 4294901760 0 0 0 0
15.000001 10.6 4 4294901760 0 0 0 0
15.200001 10.6 4 4294901760 0 0 0 0
15.400001 10.6 4 4294901760 0 0 0 0
15.6 10.6 4 4294901760 0 0 0 0
14.8 10.8 4 4294901760 0 0 0 0
15.000001 10.8 4 4294901760 0 0 0 0
15.200001 10.8 4 4294901760 0 0 0 0
15.400001 10.8 4 4294901760 0 0 0 0
15.6 10.8 4 4294901760 0 0 0 0
14.8 11 4 4294901760 0 0 0 0
15.000001 11 4 4294901760 0 0 0 0
15.200001 11 4 4294901760 0 0 0 0
15.400001 11 4 4294901760 0 0 0 0
15.6 11 4 4294901760 0 0 0 0
10.6 12 2.2 4294901760 0 0 0 0
10.8 12 2.2 4294901760 0 0 0 0
11 12 2.2 4294901760 0 0 0 0
9.6000004 11.2 2 4294901760 0 0 0 0
9.8000002 11.2 2 4294901760 0 0 0 0
10 11.2 2 4294901760 0 0 0 0
9.6000004 11.4 2 4294901760 0 0 0 0
9.8000002 11.4 2 4294901760 0 0 0 0
10 11.4 2 4294901760 0 0 0 0
10.200001 11.4 2 4294901760 0 0 0 0
10.400001 11.4 2 4294901760 0 0 0 0
10.6 11.4 2 4294901760 0 0 0 0
10.8 11.4 2 4294901760 0 0 0 0
11 11.4 2 4294901760 0 0 0 0
9.6000004 11.599999 2 4294901760 0 0 0 0
9.8000002 11.599999 2 4294901760 0 0 0 0
10 11.599999 2 4294901760 0 0 0 0
10.200001 11.599999 2 4294901760 0 0 0 0
10.400001 11.599999 2 4294901760 0 0 0 0
10.6 11.599999 2 4294901760 0 0 0 0
10.8 11.599999 2 4294901760 0 0 0 0
11 11.599999 2 4294901760 0 0 0 0
9.6000004 11.8 2 4294901760 0 0 0 0
9.8000002 11.8 2 4294901760 0 0 0 0
10 11.8 2 4294901760 0 0 0 0
10.200001 11.8 2 4294901760 0 0 0 0
10.400001 11.8 2 4294901760 0 0 0 0
10.6 11.8 2 4294901760 0 0 0 0
10.8 11.8 2 4294901760 0 0 0 0
11 11.8 2 4294901760 0 0 0 0
9.6000004 11.4 2.8 4294901760 0 0 0 0
9.8000002 11.4 2.8 4294901760 0 0 0 0
10 11.4 2.8 4294901760 0 0 0 0
10.200001 11.4 2.8 4294901760 0 0 0 0
10.400001 11.4 2.8 4294901760 0 0 0 0
10.6 11.4 2.8 4294901760 0 0 0 0
10.8 11.4 2.8 4294901760 0 0 0 0
11 11.4 2.8 4294901760 0 0 0 0
9.6000004 11.599999 2.8 4294901760 0 0 0 0
9.8000002 11.599999 2.8 4294901760 0 0 0 0
10 11.599999 2.8 4294901760 0 0 0 0
10.200001 11.599999 2.8 4294901760 0 0 0 0
10.400001 11.599999 2.8 4294901760 0 0 0 0
10.6 11.599999 2.8 4294901760 0 0 0 0
10.8 11.599999 2.8 4294901760 0 0 0 0
11 11.599999 2.8 4294901760 0 0 0 0
9.6000004 11.8 2.8 4294901760 0 0 0 0
9.8000002 11.8 2.8 4294901760 0 0 0 0
10 11.8 2.8 4294901760 0 0 0 0
10.200001 11.8 2.8 4294901760 0 0 0 0
10.400001 11.8 2.8 4294901760 0 0 0 0
10.6 11.8 2.8 4294901760 0 0 0 0
10.8 11.8 2.8 4294901760 0 0 0 0
11 11.8 2.8 4294901760 0 0 0 0
9.6000004 11.4 2.2 4294901760 0 0 0 0
9.8000002 11.4 2.2 4294901760 0 0 0 0
10 11.4 2.2 4294901760 0 0 0 0
10.200001 11.4 2.2 4294901760 0 0 0 0
10.400001 11.4 2.2 4294901760 0 0 0 0
10.6 11.4 2.2 4294901760 0 0 0 0
10.8 11.4 2.2 4294901760 0 0 0 0
11 11.4 2.2 4294901760 0 0 0 0
9.6000004 11.599999 2.2 4294901760 0 0 0 0
9.8000002 11.599999 2.2 4294901760 0 0 0 0
10 11.599999 2.2 4294901760 0 0 0 0
10.200001 11.599999 2.2 4294901760 0 0 0 0
10.400001 11.599999 2.2 4294901760 0 0 0 0
10.6 11.599999 2.2 4294901760 0 0 0 0
10.8 11.599999 2.2 4294901760 0 0 0 0
11 11.599999 2.2 4294901760 0 0 0 0
9.6000004 11.8 2.2 4294901760 0 0 0 0
9.8000002 11.8 2.2 4294901760 0 0 0 0
10 11.8 2.2 4294901760 0 0 0 0
10.200001 11.8 2.2 4294901760 0 0 0 0
10.400001 11.8 2.2 4294901760 0 0 0 0
10.6 11.8 2.2 4294901760 0 0 0 0
10.8 11.8 2.2 4294901760 0 0 0 0
11 11.8 2.2 4294901760 0 0 0 0
14.8 10.400001 4.2000003 4294901760 0 0 0 0
15.000001 10.400001 4.2000003 4294901760 0 0 0 0
15.200001 10.400001 4.2000003 4294901760 0 0 0 0
15.400001 10.400001 4.2000003 4294901760 0 0 0 0
15.6 10.400001 4.2000003 4294901760 0 0 0 0
14.8 10.6 4.2000003 4294901760 0 0 0 0
15.000001 10.6 4.2000003 4294901760 0 0 0 0
15.200001 10.6 4.2000003 4294901760 0 0 0 0
15.400001 10.6 4.2000003 4294901760 0 0 0 0
15.6 10.6 4.2000003 4294901760 0 0 0 0
14.8 10.8 4.2000003 4294901760 0 0 0 0
15.000001 10.8 4.2000003 4294901760 0 0 0 0
15.200001 10.8 4.2000003 4294901760 0 0 0 0
15.400001 10.8 4.2000003 4294901760 0 0 0 0
15.6 10.8 4.2000003 4294901760 0 0 0 0
14.8 11 4.2000003 4294901760 0 0 0 0
15.000001 11 4.2000003 4294901760 0 0 0 0
15.200001 11 4.2000003 4294901760 0 0 0 0
15.400001 11 4.2000003 4294901760 0 0 0 0
15.6 11 4.2000003 4294901760 0 0 0 0
14.8 10.400001 3.6000001 4294901760 0 0 0 0
15.000001 10.400001 3.6000001 4294901760 0 0 0 0
15.200001 10.400001 3.6000001 4294901760 0 0 0 0
15.400001 10.400001 3.6000001 4294901760 0 0 0 0
15.6 10.400001 3.6000001 4294901760 0 0 0 0
14.8 10.6 3.6000001 4294901760 0 0 0 0
15.000001 10.6 3.6000001 4294901760 0 0 0 0
15.200001 10.6 3.6000001 4294901760 0 0 0 0
15.400001 10.6 3.6000001 4294901760 0 0 0 0
15.6 10.6 3.6000001 4294901760 0 0 0 0
14.8 10.8 3.6000001 4294901760 0 0 0 0
15.000001 10.8 3.6000001 4294901760 0 0 0 0
15.200001 10.8 3.6000001 4294901760 0 0 0 0
15.400001 10.8 3.6000001 4294901760 0 0 0 0
15.6 10.8 3.6000001 4294901760 0 0 0 0
14.8 11 3.6000001 4294901760 0 0 0 0
15.000001 11 3.6000001 4294901760 0 0 0 0
15.200001 11 3.6000001 4294901760 0 0 0 0
15.400001 11 3.6000001 4294901760 0 0 0 0
15.6 11 3.6000001 4294901760 0 0 0 0
14.8 9.6000004 4.5999999 4294901760 0 0 0 0
15.000001 9.6000004 4.5999999 4294901760 0 0 0 0
15.200001 9.6000004 4.5999999 4294901760 0 0 0 0
15.400001 9.6000004 4.5999999 4294901760 0 0 0 0
15.6 9.6000004 4.5999999 4294901760 0 0 0 0
14.8 9.8000002 4.5999999 4294901760 0 0 0 0
15.000001 9.8000002 4.5999999 4294901760 0 0 0 0
15.200001 9.8000002 4.5999999 4294901760 0 0 0 0
15.400001 9.8000002 4.5999999 4294901760 0 0 0 0
15.6 9.8000002 4.5999999 4294901760 0 0 0 0
15.000001 10 4.5999999 4294901760 0 0 0 0
15.200001 10 4.5999999 4294901760 0 0 0 0
15.400001 10 4.5999999 4294901760 0 0 0 0
15.6 10 4.5999999 4294901760 0 0 0 0
15.000001 10.200001 4.5999999 4294901760 0 0 0 0
15.200001 10.200001 4.5999999 4294901760 0 0 0 0
15.400001 10.200001 4.5999999 4294901760 0 0 0 0
15.6 10.200001 4.5999999 4294901760 0 0 0 0
11.2 11.4 2.2 4294901760 0 0 0 0
11.4 11.4 2.2 4294901760 0 0 0 0
11.599999 11.4 2.2 4294901760 0 0 0 0
11.8 11.4 2.2 4294901760 0 0 0 0
12 11.4 2.2 4294901760 0 0 0 0
12.2 11.4 2.2 4294901760 0 0 0 0
12.4 11.4 2.2 4294901760 0 0 0 0
12.599999 11.4 2.2 4294901760 0 0 0 0
11.2 11.599999 2.2 4294901760 0 0 0 0
11.4 11.599999 2.2 4294901760 0 0 0 0
11.599999 11.599999 2.2 4294901760 0 0 0 0
11.8 11.599999 2.2 4294901760 0 0 0 0
12 11.599999 2.2 4294901760 0 0 0 0
12.2 11.599999 2.2 4294901760 0 0 0 0
12.4 11.599999 2.2 4294901760 0 0 0 0
12.599999 11.599999 2.2 4294901760 0 0 0 0
11.2 11.8 2.2 4294901760 0 0 0 0
11.4 11.8 2.2 4294901760 0 0 0 0
11.599999 11.8 2.2 4294901760 0 0 0 0
11.8 11.8 2.2 4294901760 0 0 0 0
12 11.8 2.2 4294901760 0 0 0 0
12.2 11.8 2.2 4294901760 0 0 0 0
12.4 11.8 2.2 4294901760 0 0 0 0
12.599999 11.8 2.2 4294901760 0 0 0 0
14.8 10.400001 2.2 4294901760 0 0 0 0
15.000001 10.400001 2.2 4294901760 0 0 0 0
15.200001 10.400001 2.2 4294901760 0 0 0 0
15.400001 10.400001 2.2 4294901760 0 0 0 0
15.6 10.400001 2.2 4294901760 0 0 0 0
14.8 10.6 2.2 4294901760 0 0 0 0
15.000001 10.6 2.2 4294901760 0 0 0 0
15.200001 10.6 2.2 4294901760 0 0 0 0
15.400001 10.6 2.2 4294901760 0 0 0 0
15.6 10.6 2.2 4294901760 0 0 0 0
14.8 10.8 2.2 4294901760 0 0 0 0
15.000001 10.8 2.2 4294901760 0 0 0 0
15.200001 10.8 2.2 4294901760 0 0 0 0
15.400001 10.8 2.2 4294901760 0 0 0 0
15.6 10.8 2.2 4294901760 0 0 0 0
14.8 11 2.2 4294901760 0 0 0 0
15.000001 11 2.2 4294901760 0 0 0 0
15.200001 11 2.2 4294901760 0 0 0 0
15.400001 11 2.2 4294901760 0 0 0 0
15.6 11 2.2 4294901760 0 0 0 0
14.8 10.400001 3 4294901760 0 0 0 0
15.000001 10.400001 3 4294901760 0 0 0 0
15.200001 10.400001 3 4294901760 0 0 0 0
15.400001 10.400001 3 4294901760 0 0 0 0
15.6 10.400001 3 4294901760 0 0 0 0
14.8 10.6 3 4294901760 0 0 0 0
15.000001 10.6 3 4294901760 0 0 0 0
15.200001 10.6 3 4294901760 0 0 0 0
15.400001 10.6 3 4294901760 0 0 0 0
15.6 10.6 3 4294901760 0 0 0 0
14.8 10.8 3 4294901760 0 0 0 0
15.000001 10.8 3 4294901760 0 0 0 0
15.200001 10.8 3 4294901760 0 0 0 0
15.400001 10.8 3 4294901760 0 0 0 0
15.6 10.8 3 4294901760 0 0 0 0
14.8 11 3 4294901760 0 0 0 0
15.000001 11 3 4294901760 0 0 0 0
15.200001 11 3 4294901760 0 0 0 0
15.400001 11 3 4294901760 0 0 0 0
15.6 11 3 4294901760 0 0 0 0
14.8 10.400001 2.6000001 4294901760 0 0 0 0
15.000001 10.400001 2.6000001 4294901760 0 0 0 0
15.200001 10.400001 2.6000001 4294901760 0 0 0 0
15.400001 10.400001 2.6000001 4294901760 0 0 0 0
15.6 10.400001 2.6000001 4294901760 0 0 0 0
14.8 10.6 2.6000001 4294901760 0 0 0 0
15.000001 10.6 2.6000001 4294901760 0 0 0 0
15.200001 10.6 2.6000001 4294901760 0 0 0 0
15.400001 10.6 2.6000001 4294901760 0 0 0 0
15.6 10.6 2.6000001 4294901760 0 0 0 0
14.8 10.8 2.6000001 4294901760 0 0 0 0
15.000001 10.8 2.6000001 4294901760 0 0 0 0
15.200001 10.8 2.6000001 4294901760 0 0 0 0
15.400001 10.8 2.6000001 4294901760 0 0 0 0
15.6 10.8 2.6000001 4294901760 0 0 0 0
14.8 11 2.6000001 4294901760 0 0 0 0
15.000001 11 2.6000001 4294901760 0 0 0 0
15.200001 11 2.6000001 4294901760 0 0 0 0
15.400001 11 2.6000001 4294901760 0 0 0 0
15.6 11 2.6000001 4294901760 0 0 0 0
15.000001 9.6000004 2 4294901760 0 0 0 0
15.200001 9.6000004 2 4294901760 0 0 0 0
15.400001 9.6000004 2 4294901760 0 0 0 0
15.6 9.6000004 2 4294901760 0 0 0 0
14.8 9.8000002 2 4294901760 0 0 0 0
15.000001 9.8000002 2 4294901760 0 0 0 0
15.200001 9.8000002 2 4294901760 0 0 0 0
15.400001 9.8000002 2 4294901760 0 0 0 0
15.6 9.8000002 2 4294901760 0 0 0 0
14.8 10 2 4294901760 0 0 0 0
15.000001 10 2 4294901760 0 0 0 0
15.200001 10 2 4294901760 0 0 0 0
15.400001 10 2 4294901760 0 0 0 0
15.6 10 2 4294901760 0 0 0 0
14.8 10.200001 2 4294901760 0 0 0 0
15.000001 10.200001 2 4294901760 0 0 0 0
15.200001 10.200001 2 4294901760 0 0 0 0
15.400001 10.200001 2 4294901760 0 0 0 0
15.6 10.200001 2 4294901760 0 0 0 0
14.8 9.6000004 2.2 4294901760 0 0 0 0
15.000001 9.6000004 2.2 4294901760 0 0 0 0
15.200001 9.6000004 2.2 4294901760 0 0 0 0
15.400001 9.6000004 2.2 4294901760 0 0 0 0
15.6 9.6000004 2.2 4294901760 0 0 0 0
15.8 9.6000004 2.2 4294901760 0 0 0 0
14.8 9.8000002 2.2 4294901760 0 0 0 0
15.000001 9.8000002 2.2 4294901760 0 0 0 0
15.200001 9.8000002 2.2 4294901760 0 0 0 0
15.400001 9.8000002 2.2 4294901760 0 0 0 0
15.6 9.8000002 2.2 4294901760 0 0 0 0
14.8 10 2.2 4294901760 0 0 0 0
15.000001 10 2.2 4294901760 0 0 0 0
15.200001 10 2.2 4294901760 0 0 0 0
15.400001 10 2.2 4294901760 0 0 0 0
15.6 10 2.2 4294901760 0 0 0 0
14.8 10.200001 2.2 4294901760 0 0 0 0
15.000001 10.200001 2.2 4294901760 0 0 0 0
15.200001 10.200001 2.2 4294901760 0 0 0 0
15.400001 10.200001 2.2 4294901760 0 0 0 0
15.6 10.200001 2.2 4294901760 0 0 0 0
9.6000004 11.4 2.4000001 4294901760 0 0 0 0
9.8000002 11.4 2.4000001 4294901760 0 0 0 0
10 11.4 2.4000001 4294901760 0 0 0 0
10.200001 11.4 2.4000001 4294901760 0 0 0 0
10.400001 11.4 2.4000001 4294901760 0 0 0 0
10.6 11.4 2.4000001 4294901760 0 0 0 0
10.8 11.4 2.4000001 4294901760 0 0 0 0
11 11.4 2.4000001 4294901760 0 0 0 0
9.6000004 11.599999 2.4000001 4294901760 0 0 0 0
9.8000002 11.599999 2.4000001 4294901760 0 0 0 0
10 11.599999 2.4000001 4294901760 0 0 0 0
10.200001 11.599999 2.4000001 4294901760 0 0 0 0
10.400001 11.599999 2.4000001 4294901760 0 0 0 0
10.6 11.599999 2.4000001 4294901760 0 0 0 0
10.8 11.599999 2.4000001 4294901760 0 0 0 0
11 11.599999 2.4000001 4294901760 0 0 0 0
9.6000004 11.8 2.4000001 4294901760 0 0 0 0
9.8000002 11.8 2.4000001 4294901760 0 0 0 0
10 11.8 2.4000001 4294901760 0 0 0 0
10.200001 11.8 2.4000001 4294901760 0 0 0 0
10.400001 11.8 2.4000001 4294901760 0 0 0 0
10.6 11.8 2.4000001 4294901760 0 0 0 0
10.8 11.8 2.4000001 4294901760 0 0 0 0
11 11.8 2.4000001 4294901760 0 0 0 0
9.6000004 11.4 2.6000001 4294901760 0 0 0 0
9.8000002 11.4 2.6000001 4294901760 0 0 0 0
10 11.4 2.6000001 4294901760 0 0 0 0
10.200001 11.4 2.6000001 4294901760 0 0 0 0
10.400001 11.4 2.6000001 4294901760 0 0 0 0
10.6 11.4 2.6000001 4294901760 0 0 0 0
10.8 11.4 2.6000001 4294901760 0 0 0 0
11 11.4 2.6000001 4294901760 0 0 0 0
9.6000004 11.599999 2.6000001 4294901760 0 0 0 0
9.8000002 11.599999 2.6000001 4294901760 0 0 0 0
10 11.599999 2.6000001 4294901760 0 0 0 0
10.200001 11.599999 2.6000001 4294901760 0 0 0 0
10.400001 11.599999 2.6000001 4294901760 0 0 0 0
10.6 11.599999 2.6000001 4294901760 0 0 0 0
10.8 11.599999 2.6000001 4294901760 0 0 0 0
11 11.599999 2.6000001 4294901760 0 0 0 0
9.6000004 11.8 2.6000001 4294901760 0 0 0 0
9.8000002 11.8 2.6000001 4294901760 0 0 0 0
10 11.8 2.6000001 4294901760 0 0 0 0
10.200001 11.8 2.6000001 4294901760 0 0 0 0
10.400001 11.8 2.6000001 4294901760 0 0 0 0
10.6 11.8 2.6000001 4294901760 0 0 0 0
10.8 11.8 2.6000001 4294901760 0 0 0 0
11 11.8 2.6000001 4294901760 0 0 0 0
14.8 10.400001 2.4000001 4294901760 0 0 0 0
15.000001 10.400001 2.4000001 4294901760 0 0 0 0
15.200001 10.400001 2.4000001 4294901760 0 0 0 0
15.400001 10.400001 2.4000001 4294901760 0 0 0 0
15.6 10.400001 2.4000001 4294901760 0 0 0 0
14.8 10.6 2.4000001 4294901760 0 0 0 0
15.000001 10.6 2.4000001 4294901760 0 0 0 0
15.200001 10.6 2.4000001 4294901760 0 0 0 0
15.400001 10.6 2.4000001 4294901760 0 0 0 0
15.6 10.6 2.4000001 4294901760 0 0 0 0
14.8 10.8 2.4000001 4294901760 0 0 0 0
15.000001 10.8 2.4000001 4294901760 0 0 0 0
15.200001 10.8 2.4000001 4294901760 0 0 0 0
15.400001 10.8 2.4000001 4294901760 0 0 0 0
15.6 10.8 2.4000001 4294901760 0 0 0 0
14.8 11 2.4000001 4294901760 0 0 0 0
15.000001 11 2.4000001 4294901760 0 0 0 0
15.200001 11 2.4000001 4294901760 0 0 0 0
15.400001 11 2.4000001 4294901760 0 0 0 0
15.6 11 2.4000001 4294901760 0 0 0 0
14.8 9.6000004 2.4000001 4294901760 0 0 0 0
15.000001 9.6000004 2.4000001 4294901760 0 0 0 0
15.200001 9.6000004 2.4000001 4294901760 0 0 0 0
15.400001 9.6000004 2.4000001 4294901760 0 0 0 0
15.6 9.6000004 2.4000001 4294901760 0 0 0 0
14.8 9.8000002 2.4000001 4294901760 0 0 0 0
15.000001 9.8000002 2.4000001 4294901760 0 0 0 0
15.200001 9.8000002 2.4000001 4294901760 0 0 0 0
15.400001 9.8000002 2.4000001 4294901760 0 0 0 0
15.6 9.8000002 2.4000001 4294901760 0 0 0 0
14.8 10 2.4000001 4294901760 0 0 0 0
15.000001 10 2.4000001 4294901760 0 0 0 0
15.200001 10 2.4000001 4294901760 0 0 0 0
15.400001 10 2.4000001 4294901760 0 0 0 0
15.6 10 2.4000001 4294901760 0 0 0 0
14.8 10.200001 2.4000001 4294901760 0 0 0 0
15.000001 10.200001 2.4000001 4294901760 0 0 0 0
15.200001 10.200001 2.4000001 4294901760 0 0 0 0
15.400001 10.200001 2.4000001 4294901760 0 0 0 0
15.6 10.200001 2.4000001 4294901760 0 0 0 0
14.8 9.6000004 2.6000001 4294901760 0 0 0 0
15.000001 9.6000004 2.6000001 4294901760 0 0 0 0
15.200001 9.6000004 2.6000001 4294901760 0 0 0 0
15.400001 9.6000004 2.6000001 4294901760 0 0 0 0
15.6 9.6000004 2.6000001 4294901760 0 0 0 0
15.000001 9.8000002 2.6000001 4294901760 0 0 0 0
15.200001 9.8000002 2.6000001 4294901760 0 0 0 0
15.400001 9.8000002 2.6000001 4294901760 0 0 0 0
15.6 9.8000002 2.6000001 4294901760 0 0 0 0
15.000001 10 2.6000001 4294901760 0 0 0 0
15.200001 10 2.6000001 4294901760 0 0 0 0
15.400001 10 2.6000001 4294901760 0 0 0 0
15.6 10 2.6000001 4294901760 0 0 0 0
14.8 10.200001 2.6000001 4294901760 0 0 0 0
15.000001 10.200001 2.6000001 4294901760 0 0 0 0
15.200001 10.200001 2.6000001 4294901760 0 0 0 0
15.400001 10.200001 2.6000001 4294901760 0 0 0 0
15.6 10.200001 2.6000001 4294901760 0 0 0 0
14.8 10.400001 2.8 4294901760 0 0 0 0
15.000001 10.400001 2.8 4294901760 0 0 0 0
15.200001 10.400001 2.8 4294901760 0 0 0 0
15.400001 10.400001 2.8 4294901760 0 0 0 0
15.6 10.400001 2.8 4294901760 0 0 0 0
14.8 10.6 2.8 4294901760 0 0 0 0
15.000001 10.6 2.8 4294901760 0 0 0 0
15.200001 10.6 2.8 4294901760 0 0 0 0
15.400001 10.6 2.8 4294901760 0 0 0 0
15.6 10.6 2.8 4294901760 0 0 0 0
14.8 10.8 2.8 4294901760 0 0 0 0
15.000001 10.8 2.8 4294901760 0 0 0 0
15.200001 10.8 2.8 4294901760 0 0 0 0
15.400001 10.8 2.8 4294901760 0 0 0 0
15.6 10.8 2.8 4294901760 0 0 0 0
14.8 11 2.8 4294901760 0 0 0 0
15.000001 11 2.8 4294901760 0 0 0 0
15.200001 11 2.8 4294901760 0 0 0 0
15.400001 11 2.8 4294901760 0 0 0 0
15.6 11 2.8 4294901760 0 0 0 0
9.6000004 11.4 3 4294901760 0 0 0 0
9.8000002 11.4 3 4294901760 0 0 0 0
10 11.4 3 4294901760 0 0 0 0
10.200001 11.4 3 4294901760 0 0 0 0
10.400001 11.4 3 4294901760 0 0 0 0
10.6 11.4 3 4294901760 0 0 0 0
10.8 11.4 3 4294901760 0 0 0 0
11 11.4 3 4294901760 0 0 0 0
9.6000004 11.599999 3 4294901760 0 0 0 0
9.8000002 11.599999 3 4294901760 0 0 0 0
10 11.599999 3 4294901760 0 0 0 0
10.200001 11.599999 3 4294901760 0 0 0 0
10.400001 11.599999 3 4294901760 0 0 0 0
10.6 11.599999 3 4294901760 0 0 0 0
10.8 11.599999 3 4294901760 0 0 0 0
11 11.599999 3 4294901760 0 0 0 0
9.6000004 11.8 3 4294901760 0 0 0 0
9.8000002 11.8 3 4294901760 0 0 0 0
10 11.8 3 4294901760 0 0 0 0
10.200001 11.8 3 4294901760 0 0 0 0
10.400001 11.8 3 4294901760 0 0 0 0
10.6 11.8 3 4294901760 0 0 0 0
10.8 11.8 3 4294901760 0 0 0 0
11 11.8 3 4294901760 0 0 0 0
14.400001 7.2000003 6.2000003 4294901760 0 0 0 0
14.6 7.2000003 6.2000003 4294901760 0 0 0 0
14.8 7.2000003 6.2000003 4294901760 0 0 0 0
14.8 7.4000001 6.2000003 4294901760 0 0 0 0
14.8 7.5999999 6.2000003 4294901760 0 0 0 0
14.8 7.8000002 6.2000003 4294901760 0 0 0 0
14.8 10.400001 2 4294901760 0 0 0 0
15.000001 10.400001 2 4294901760 0 0 0 0
15.200001 10.400001 2 4294901760 0 0 0 0
15.400001 10.400001 2 4294901760 0 0 0 0
15.6 10.400001 2 4294901760 0 0 0 0
14.8 10.6 2 4294901760 0 0 0 0
15.000001 10.6 2 4294901760 0 0 0 0
15.200001 10.6 2 4294901760 0 0 0 0
15.400001 10.6 2 4294901760 0 0 0 0
15.6 10.6 2 4294901760 0 0 0 0
14.8 10.8 2 4294901760 0 0 0 0
15.000001 10.8 2 4294901760 0 0 0 0
15.200001 10.8 2 4294901760 0 0 0 0
15.400001 10.8 2 4294901760 0 0 0 0
15.6 10.8 2 4294901760 0 0 0 0
14.8 11 2 4294901760 0 0 0 0
15.000001 11 2 4294901760 0 0 0 0
15.200001 11 2 4294901760 0 0 0 0
15.400001 11 2 4294901760 0 0 0 0
15.6 11 2 4294901760 0 0 0 0
14.8 11.2 3 4294901760 0 0 0 0
15.000001 11.2 3 4294901760 0 0 0 0
15.200001 11.2 3 4294901760 0 0 0 0
15.400001 11.2 3 4294901760 0 0 0 0
15.6 11.2 3 4294901760 0 0 0 0
14.400001 11.4 3 4294901760 0 0 0 0
14.6 11.4 3 4294901760 0 0 0 0
14.8 11.4 3 4294901760 0 0 0 0
15.000001 11.4 3 4294901760 0 0 0 0
15.200001 11.4 3 4294901760 0 0 0 0
15.400001 11.4 3 4294901760 0 0 0 0
15.6 11.4 3 4294901760 0 0 0 0
14.400001 11.599999 3 4294901760 0 0 0 0
14.6 11.599999 3 4294901760 0 0 0 0
14.8 11.599999 3 4294901760 0 0 0 0
15.000001 11.599999 3 4294901760 0 0 0 0
15.200001 11.599999 3 4294901760 0 0 0 0
15.400001 11.599999 3 4294901760 0 0 0 0
15.6 11.599999 3 4294901760 0 0 0 0
14.400001 11.8 3 4294901760 0 0 0 0
14.6 11.8 3 4294901760 0 0 0 0
14.8 11.8 3 4294901760 0 0 0 0
15.000001 11.8 3 4294901760 0 0 0 0
15.200001 11.8 3 4294901760 0 0 0 0
15.6 11.8 3 4294901760 0 0 0 0
14.8 11.2 2.8 4294901760 0 0 0 0
15.000001 11.2 2.8 4294901760 0 0 0 0
15.200001 11.2 2.8 4294901760 0 0 0 0
15.400001 11.2 2.8 4294901760 0 0 0 0
15.6 11.2 2.8 4294901760 0 0 0 0
14.400001 11.4 2.8 4294901760 0 0 0 0
14.6 11.4 2.8 4294901760 0 0 0 0
14.8 11.4 2.8 4294901760 0 0 0 0
15.000001 11.4 2.8 4294901760 0 0 0 0
15.200001 11.4 2.8 4294901760 0 0 0 0
15.400001 11.4 2.8 4294901760 0 0 0 0
15.6 11.4 2.8 4294901760 0 0 0 0
14.400001 11.599999 2.8 4294901760 0 0 0 0
14.6 11.599999 2.8 4294901760 0 0 0 0
14.8 11.599999 2.8 4294901760 0 0 0 0
15.000001 11.599999 2.8 4294901760 0 0 0 0
15.200001 11.599999 2.8 4294901760 0 0 0 0
15.400001 11.599999 2.8 4294901760 0 0 0 0
15.6 11.599999 2.8 4294901760 0 0 0 0
14.400001 11.8 2.8 4294901760 0 0 0 0
14.6 11.8 2.8 4294901760 0 0 0 0
14.8 11.8 2.8 4294901760 0 0 0 0
15.000001 11.8 2.8 4294901760 0 0 0 0
15.200001 11.8 2.8 4294901760 0 0 0 0
15.6 11.8 2.8 4294901760 0 0 0 0
14.8 11.2 1.8000001 4294901760 0 0 0 0
