# .PCD v0.7 - Point Cloud Data file format
VERSION 0.7
FIELDS x y z rgb normal_x normal_y normal_z curvature
SIZE 4 4 4 4 4 4 4 4
TYPE F F F U F F F F
COUNT 1 1 1 1 1 1 1 1
WIDTH 1183
HEIGHT 1
VIEWPOINT 0 0 0 1 0 0 0
POINTS 1183
DATA ascii
9.4000006 7.0999999 2.9000001 33488896 0 0 0 0
9.5 7.0999999 2.9000001 33488896 0 0 0 0
7.2000003 6.9000001 0.80000001 33488896 0 0 0 0
7.3000002 6.9000001 0.80000001 33488896 0 0 0 0
7.4000001 6.9000001 0.80000001 33488896 0 0 0 0
7.5000005 6.9000001 0.80000001 33488896 0 0 0 0
7.6000004 6.9000001 0.80000001 33488896 0 0 0 0
7.7000003 6.9000001 0.80000001 33488896 0 0 0 0
7.8000002 6.9000001 0.80000001 33488896 0 0 0 0
7.9000001 6.9000001 0.80000001 33488896 0 0 0 0
7.2000003 7 0.80000001 33488896 0 0 0 0
7.3000002 7 0.80000001 33488896 0 0 0 0
7.4000001 7 0.80000001 33488896 0 0 0 0
7.5000005 7 0.80000001 33488896 0 0 0 0
7.6000004 7 0.80000001 33488896 0 0 0 0
7.7000003 7 0.80000001 33488896 0 0 0 0
7.8000002 7 0.80000001 33488896 0 0 0 0
7.9000001 7 0.80000001 33488896 0 0 0 0
7.2000003 7.0999999 0.80000001 33488896 0 0 0 0
7.3000002 7.0999999 0.80000001 33488896 0 0 0 0
7.4000001 7.0999999 0.80000001 33488896 0 0 0 0
7.5000005 7.0999999 0.80000001 33488896 0 0 0 0
7.6000004 7.0999999 0.80000001 33488896 0 0 0 0
7.7000003 7.0999999 0.80000001 33488896 0 0 0 0
7.8000002 7.0999999 0.80000001 33488896 0 0 0 0
7.9000001 7.0999999 0.80000001 33488896 0 0 0 0
6.1999998 5.3000002 1.6 33488896 0 0 0 0
6.1999998 5.4000001 1.6 33488896 0 0 0 0
6.2999997 5.4000001 1.6 33488896 0 0 0 0
6.2999997 5.5 1.6 33488896 0 0 0 0
8 7.6000004 0.40000001 33488896 0 0 0 0
8.1999998 7.6000004 0.40000001 33488896 0 0 0 0
8 7.7000003 0.40000001 33488896 0 0 0 0
8.1000004 7.7000003 0.40000001 33488896 0 0 0 0
8.3000002 7.7000003 0.40000001 33488896 0 0 0 0
8 7.8000002 0.40000001 33488896 0 0 0 0
8.1000004 7.8000002 0.40000001 33488896 0 0 0 0
8 7.9000001 0.40000001 33488896 0 0 0 0
8.1000004 7.9000001 0.40000001 33488896 0 0 0 0
7.2000003 6.9000001 1.4 33488896 0 0 0 0
7.3000002 6.9000001 1.4 33488896 0 0 0 0
7.4000001 6.9000001 1.4 33488896 0 0 0 0
7.5000005 6.9000001 1.4 33488896 0 0 0 0
7.6000004 6.9000001 1.4 33488896 0 0 0 0
7.7000003 6.9000001 1.4 33488896 0 0 0 0
7.8000002 6.9000001 1.4 33488896 0 0 0 0
7.9000001 6.9000001 1.4 33488896 0 0 0 0
7.2000003 7 1.4 33488896 0 0 0 0
7.3000002 7 1.4 33488896 0 0 0 0
7.4000001 7 1.4 33488896 0 0 0 0
7.5000005 7 1.4 33488896 0 0 0 0
7.6000004 7 1.4 33488896 0 0 0 0
7.7000003 7 1.4 33488896 0 0 0 0
7.8000002 7 1.4 33488896 0 0 0 0
7.9000001 7 1.4 33488896 0 0 0 0
7.2000003 7.0999999 1.4 33488896 0 0 0 0
7.3000002 7.0999999 1.4 33488896 0 0 0 0
7.4000001 7.0999999 1.4 33488896 0 0 0 0
7.5000005 7.0999999 1.4 33488896 0 0 0 0
7.6000004 7.0999999 1.4 33488896 0 0 0 0
7.7000003 7.0999999 1.4 33488896 0 0 0 0
7.8000002 7.0999999 1.4 33488896 0 0 0 0
7.9000001 7.0999999 1.4 33488896 0 0 0 0
8 7.2000003 1.4 33488896 0 0 0 0
8.1000004 7.2000003 1.4 33488896 0 0 0 0
8.1999998 7.2000003 1.4 33488896 0 0 0 0
8.3000002 7.2000003 1.4 33488896 0 0 0 0
8.3999996 7.2000003 1.4 33488896 0 0 0 0
8.5 7.2000003 1.4 33488896 0 0 0 0
8.6000004 7.2000003 1.4 33488896 0 0 0 0
8.6999998 7.2000003 1.4 33488896 0 0 0 0
8 7.2000003 1.2 33488896 0 0 0 0
8.1000004 7.2000003 1.2 33488896 0 0 0 0
8.1999998 7.2000003 1.2 33488896 0 0 0 0
8.3000002 7.2000003 1.2 33488896 0 0 0 0
8.3999996 7.2000003 1.2 33488896 0 0 0 0
8.5 7.2000003 1.2 33488896 0 0 0 0
8.6000004 7.2000003 1.2 33488896 0 0 0 0
8.6999998 7.2000003 1.2 33488896 0 0 0 0
8.6000004 7.6000004 0.69999999 33488896 0 0 0 0
8.6999998 7.6000004 0.69999999 33488896 0 0 0 0
8.6000004 7.7000003 0.69999999 33488896 0 0 0 0
8.6999998 7.7000003 0.69999999 33488896 0 0 0 0
8.6000004 7.8000002 0.69999999 33488896 0 0 0 0
8.6999998 7.8000002 0.69999999 33488896 0 0 0 0
8.6000004 7.9000001 0.69999999 33488896 0 0 0 0
8.6999998 7.9000001 0.69999999 33488896 0 0 0 0
8 7.2000003 0.69999999 33488896 0 0 0 0
8.1000004 7.2000003 0.69999999 33488896 0 0 0 0
8.1999998 7.2000003 0.69999999 33488896 0 0 0 0
8.3000002 7.2000003 0.69999999 33488896 0 0 0 0
8.3999996 7.2000003 0.69999999 33488896 0 0 0 0
8.5 7.2000003 0.69999999 33488896 0 0 0 0
8.6000004 7.2000003 0.69999999 33488896 0 0 0 0
8.6999998 7.2000003 0.69999999 33488896 0 0 0 0
8.5 7.3000002 0.69999999 33488896 0 0 0 0
8.6000004 7.3000002 0.69999999 33488896 0 0 0 0
8.6999998 7.3000002 0.69999999 33488896 0 0 0 0
8.5 7.4000001 0.69999999 33488896 0 0 0 0
8.6000004 7.4000001 0.69999999 33488896 0 0 0 0
8.6999998 7.4000001 0.69999999 33488896 0 0 0 0
8.6000004 7.5000005 0.69999999 33488896 0 0 0 0
8.6999998 7.5000005 0.69999999 33488896 0 0 0 0
6.4000001 7 1.4 33488896 0 0 0 0
6.5 7 1.4 33488896 0 0 0 0
6.5999999 7 1.4 33488896 0 0 0 0
6.7000003 7 1.4 33488896 0 0 0 0
6.8000002 7 1.4 33488896 0 0 0 0
6.9000001 7 1.4 33488896 0 0 0 0
7 7 1.4 33488896 0 0 0 0
7.0999999 7 1.4 33488896 0 0 0 0
6.4000001 7.0999999 1.4 33488896 0 0 0 0
6.5 7.0999999 1.4 33488896 0 0 0 0
6.5999999 7.0999999 1.4 33488896 0 0 0 0
6.7000003 7.0999999 1.4 33488896 0 0 0 0
6.8000002 7.0999999 1.4 33488896 0 0 0 0
6.9000001 7.0999999 1.4 33488896 0 0 0 0
7 7.0999999 1.4 33488896 0 0 0 0
7.0999999 7.0999999 1.4 33488896 0 0 0 0
8 7.6000004 0.5 33488896 0 0 0 0
8.1000004 7.6000004 0.5 33488896 0 0 0 0
8.1999998 7.6000004 0.5 33488896 0 0 0 0
8.3000002 7.6000004 0.5 33488896 0 0 0 0
8.3999996 7.6000004 0.5 33488896 0 0 0 0
8 7.7000003 0.5 33488896 0 0 0 0
8.1000004 7.7000003 0.5 33488896 0 0 0 0
8.1999998 7.7000003 0.5 33488896 0 0 0 0
8.3000002 7.7000003 0.5 33488896 0 0 0 0
8.3999996 7.7000003 0.5 33488896 0 0 0 0
8 7.8000002 0.5 33488896 0 0 0 0
8.1000004 7.8000002 0.5 33488896 0 0 0 0
8.1999998 7.8000002 0.5 33488896 0 0 0 0
8.3000002 7.8000002 0.5 33488896 0 0 0 0
8.3999996 7.8000002 0.5 33488896 0 0 0 0
8 7.9000001 0.5 33488896 0 0 0 0
8.1000004 7.9000001 0.5 33488896 0 0 0 0
8.1999998 7.9000001 0.5 33488896 0 0 0 0
8.3000002 7.9000001 0.5 33488896 0 0 0 0
8.3999996 7.9000001 0.5 33488896 0 0 0 0
8 7.2000003 0.40000001 33488896 0 0 0 0
8.1000004 7.2000003 0.40000001 33488896 0 0 0 0
8.1999998 7.2000003 0.40000001 33488896 0 0 0 0
8.3000002 7.2000003 0.40000001 33488896 0 0 0 0
8.3999996 7.2000003 0.40000001 33488896 0 0 0 0
8.5 7.2000003 0.40000001 33488896 0 0 0 0
8.6000004 7.2000003 0.40000001 33488896 0 0 0 0
8.6999998 7.2000003 0.40000001 33488896 0 0 0 0
8 7.3000002 0.40000001 33488896 0 0 0 0
8.1000004 7.3000002 0.40000001 33488896 0 0 0 0
8.1999998 7.3000002 0.40000001 33488896 0 0 0 0
8.3000002 7.3000002 0.40000001 33488896 0 0 0 0
8.3999996 7.3000002 0.40000001 33488896 0 0 0 0
8.5 7.3000002 0.40000001 33488896 0 0 0 0
8.6000004 7.3000002 0.40000001 33488896 0 0 0 0
8.6999998 7.3000002 0.40000001 33488896 0 0 0 0
8 7.4000001 0.40000001 33488896 0 0 0 0
8.1000004 7.4000001 0.40000001 33488896 0 0 0 0
8.1999998 7.4000001 0.40000001 33488896 0 0 0 0
8.3000002 7.4000001 0.40000001 33488896 0 0 0 0
8.3999996 7.4000001 0.40000001 33488896 0 0 0 0
8.5 7.4000001 0.40000001 33488896 0 0 0 0
8.6000004 7.4000001 0.40000001 33488896 0 0 0 0
8.6999998 7.4000001 0.40000001 33488896 0 0 0 0
8 7.5000005 0.40000001 33488896 0 0 0 0
8.1000004 7.5000005 0.40000001 33488896 0 0 0 0
7.2000003 6.9000001 1 33488896 0 0 0 0
7.3000002 6.9000001 1 33488896 0 0 0 0
7.4000001 6.9000001 1 33488896 0 0 0 0
7.5000005 6.9000001 1 33488896 0 0 0 0
7.6000004 6.9000001 1 33488896 0 0 0 0
7.7000003 6.9000001 1 33488896 0 0 0 0
7.8000002 6.9000001 1 33488896 0 0 0 0
7.9000001 6.9000001 1 33488896 0 0 0 0
7.2000003 7 1 33488896 0 0 0 0
7.3000002 7 1 33488896 0 0 0 0
7.4000001 7 1 33488896 0 0 0 0
7.5000005 7 1 33488896 0 0 0 0
7.6000004 7 1 33488896 0 0 0 0
7.7000003 7 1 33488896 0 0 0 0
7.8000002 7 1 33488896 0 0 0 0
7.9000001 7 1 33488896 0 0 0 0
7.2000003 7.0999999 1 33488896 0 0 0 0
7.3000002 7.0999999 1 33488896 0 0 0 0
7.4000001 7.0999999 1 33488896 0 0 0 0
7.5000005 7.0999999 1 33488896 0 0 0 0
7.6000004 7.0999999 1 33488896 0 0 0 0
7.7000003 7.0999999 1 33488896 0 0 0 0
7.8000002 7.0999999 1 33488896 0 0 0 0
7.9000001 7.0999999 1 33488896 0 0 0 0
8 7.2000003 0.5 33488896 0 0 0 0
8.1000004 7.2000003 0.5 33488896 0 0 0 0
8.1999998 7.2000003 0.5 33488896 0 0 0 0
8.3000002 7.2000003 0.5 33488896 0 0 0 0
8.3999996 7.2000003 0.5 33488896 0 0 0 0
8.5 7.2000003 0.5 33488896 0 0 0 0
8.6000004 7.2000003 0.5 33488896 0 0 0 0
8.6999998 7.2000003 0.5 33488896 0 0 0 0
8 7.3000002 0.5 33488896 0 0 0 0
8.1000004 7.3000002 0.5 33488896 0 0 0 0
8.1999998 7.3000002 0.5 33488896 0 0 0 0
8.3000002 7.3000002 0.5 33488896 0 0 0 0
8.3999996 7.3000002 0.5 33488896 0 0 0 0
8.5 7.3000002 0.5 33488896 0 0 0 0
8.6000004 7.3000002 0.5 33488896 0 0 0 0
8.6999998 7.3000002 0.5 33488896 0 0 0 0
8 7.4000001 0.5 33488896 0 0 0 0
8.1000004 7.4000001 0.5 33488896 0 0 0 0
8.1999998 7.4000001 0.5 33488896 0 0 0 0
8.3000002 7.4000001 0.5 33488896 0 0 0 0
8.3999996 7.4000001 0.5 33488896 0 0 0 0
8.5 7.4000001 0.5 33488896 0 0 0 0
8.6000004 7.4000001 0.5 33488896 0 0 0 0
8.6999998 7.4000001 0.5 33488896 0 0 0 0
8 7.5000005 0.5 33488896 0 0 0 0
8.1000004 7.5000005 0.5 33488896 0 0 0 0
8.1999998 7.5000005 0.5 33488896 0 0 0 0
8.3000002 7.5000005 0.5 33488896 0 0 0 0
8.3999996 7.5000005 0.5 33488896 0 0 0 0
8.8000002 7.2000003 1.2 33488896 0 0 0 0
8.9000006 7.2000003 1.2 33488896 0 0 0 0
9 7.2000003 1.2 33488896 0 0 0 0
9.1000004 7.2000003 1.2 33488896 0 0 0 0
9.1999998 7.2000003 1.2 33488896 0 0 0 0
9.3000002 7.2000003 1.2 33488896 0 0 0 0
9.4000006 7.2000003 1.2 33488896 0 0 0 0
9.5 7.2000003 1.2 33488896 0 0 0 0
8.8000002 7 2.4000001 33488896 0 0 0 0
8.9000006 7 2.4000001 33488896 0 0 0 0
9 7 2.4000001 33488896 0 0 0 0
9.1000004 7 2.4000001 33488896 0 0 0 0
9.1999998 7 2.4000001 33488896 0 0 0 0
9.3000002 7 2.4000001 33488896 0 0 0 0
8.8000002 7.0999999 2.4000001 33488896 0 0 0 0
8.9000006 7.0999999 2.4000001 33488896 0 0 0 0
9 7.0999999 2.4000001 33488896 0 0 0 0
9.1000004 7.0999999 2.4000001 33488896 0 0 0 0
9.1999998 7.0999999 2.4000001 33488896 0 0 0 0
9.3000002 7.0999999 2.4000001 33488896 0 0 0 0
9.4000006 7.0999999 2.4000001 33488896 0 0 0 0
9.5 7.0999999 2.4000001 33488896 0 0 0 0
5.5999999 4.8000002 -0.1 33488896 0 0 0 0
5.6999998 4.8000002 -0.1 33488896 0 0 0 0
5.7999997 4.8000002 -0.1 33488896 0 0 0 0
5.9000001 4.8000002 -0.1 33488896 0 0 0 0
6 4.8000002 -0.1 33488896 0 0 0 0
6.0999999 4.8000002 -0.1 33488896 0 0 0 0
6.1999998 4.8000002 -0.1 33488896 0 0 0 0
6.2999997 4.8000002 -0.1 33488896 0 0 0 0
5.5999999 4.9000001 -0.1 33488896 0 0 0 0
5.6999998 4.9000001 -0.1 33488896 0 0 0 0
5.7999997 4.9000001 -0.1 33488896 0 0 0 0
5.9000001 4.9000001 -0.1 33488896 0 0 0 0
6 4.9000001 -0.1 33488896 0 0 0 0
6.0999999 4.9000001 -0.1 33488896 0 0 0 0
6.1999998 4.9000001 -0.1 33488896 0 0 0 0
6.2999997 4.9000001 -0.1 33488896 0 0 0 0
5.5999999 5 -0.1 33488896 0 0 0 0
5.6999998 5 -0.1 33488896 0 0 0 0
5.7999997 5 -0.1 33488896 0 0 0 0
5.9000001 5 -0.1 33488896 0 0 0 0
6 5 -0.1 33488896 0 0 0 0
6.0999999 5 -0.1 33488896 0 0 0 0
6.1999998 5 -0.1 33488896 0 0 0 0
6.2999997 5 -0.1 33488896 0 0 0 0
5.5999999 5.1000004 -0.1 33488896 0 0 0 0
5.6999998 5.1000004 -0.1 33488896 0 0 0 0
5.7999997 5.1000004 -0.1 33488896 0 0 0 0
5.9000001 5.1000004 -0.1 33488896 0 0 0 0
6 5.1000004 -0.1 33488896 0 0 0 0
6.0999999 5.1000004 -0.1 33488896 0 0 0 0
6.1999998 5.1000004 -0.1 33488896 0 0 0 0
6.2999997 5.1000004 -0.1 33488896 0 0 0 0
8.8000002 7.2000003 1.1 33488896 0 0 0 0
8.9000006 7.2000003 1.1 33488896 0 0 0 0
9 7.2000003 1.1 33488896 0 0 0 0
9.1000004 7.2000003 1.1 33488896 0 0 0 0
9.1999998 7.2000003 1.1 33488896 0 0 0 0
9.3000002 7.2000003 1.1 33488896 0 0 0 0
9.4000006 7.2000003 1.1 33488896 0 0 0 0
9.5 7.2000003 1.1 33488896 0 0 0 0
8.8000002 7.2000003 1 33488896 0 0 0 0
8.9000006 7.2000003 1 33488896 0 0 0 0
9 7.2000003 1 33488896 0 0 0 0
9.1000004 7.2000003 1 33488896 0 0 0 0
9.1999998 7.2000003 1 33488896 0 0 0 0
9.3000002 7.2000003 1 33488896 0 0 0 0
9.4000006 7.2000003 1 33488896 0 0 0 0
9.5 7.2000003 1 33488896 0 0 0 0
5.5999999 5.2000003 -0.1 33488896 0 0 0 0
5.6999998 5.2000003 -0.1 33488896 0 0 0 0
5.7999997 5.2000003 -0.1 33488896 0 0 0 0
5.9000001 5.2000003 -0.1 33488896 0 0 0 0
6 5.2000003 -0.1 33488896 0 0 0 0
6.0999999 5.2000003 -0.1 33488896 0 0 0 0
6.1999998 5.2000003 -0.1 33488896 0 0 0 0
6.2999997 5.2000003 -0.1 33488896 0 0 0 0
5.5999999 5.3000002 -0.1 33488896 0 0 0 0
5.6999998 5.3000002 -0.1 33488896 0 0 0 0
5.7999997 5.3000002 -0.1 33488896 0 0 0 0
5.9000001 5.3000002 -0.1 33488896 0 0 0 0
6 5.3000002 -0.1 33488896 0 0 0 0
6.0999999 5.3000002 -0.1 33488896 0 0 0 0
6.1999998 5.3000002 -0.1 33488896 0 0 0 0
6.2999997 5.3000002 -0.1 33488896 0 0 0 0
5.5999999 5.4000001 -0.1 33488896 0 0 0 0
5.6999998 5.4000001 -0.1 33488896 0 0 0 0
5.7999997 5.4000001 -0.1 33488896 0 0 0 0
5.9000001 5.4000001 -0.1 33488896 0 0 0 0
6 5.4000001 -0.1 33488896 0 0 0 0
6.0999999 5.4000001 -0.1 33488896 0 0 0 0
6.1999998 5.4000001 -0.1 33488896 0 0 0 0
6.2999997 5.4000001 -0.1 33488896 0 0 0 0
5.5999999 5.5 -0.1 33488896 0 0 0 0
5.6999998 5.5 -0.1 33488896 0 0 0 0
5.7999997 5.5 -0.1 33488896 0 0 0 0
5.9000001 5.5 -0.1 33488896 0 0 0 0
6 5.5 -0.1 33488896 0 0 0 0
6.0999999 5.5 -0.1 33488896 0 0 0 0
6.1999998 5.5 -0.1 33488896 0 0 0 0
6.2999997 5.5 -0.1 33488896 0 0 0 0
8.8000002 7.2000003 -0.1 33488896 0 0 0 0
8.9000006 7.2000003 -0.1 33488896 0 0 0 0
9 7.2000003 -0.1 33488896 0 0 0 0
9.1000004 7.2000003 -0.1 33488896 0 0 0 0
8.8000002 7.3000002 -0.1 33488896 0 0 0 0
8.9000006 7.3000002 -0.1 33488896 0 0 0 0
9 7.3000002 -0.1 33488896 0 0 0 0
9.1000004 7.3000002 -0.1 33488896 0 0 0 0
9.1999998 7.3000002 -0.1 33488896 0 0 0 0
9.3000002 7.3000002 -0.1 33488896 0 0 0 0
9.4000006 7.3000002 -0.1 33488896 0 0 0 0
8.8000002 7.2000003 0.5 33488896 0 0 0 0
8.9000006 7.2000003 0.5 33488896 0 0 0 0
9 7.2000003 0.5 33488896 0 0 0 0
9.1000004 7.2000003 0.5 33488896 0 0 0 0
9.1999998 7.2000003 0.5 33488896 0 0 0 0
9.3000002 7.2000003 0.5 33488896 0 0 0 0
9.4000006 7.2000003 0.5 33488896 0 0 0 0
9.5 7.2000003 0.5 33488896 0 0 0 0
8.8000002 7.3000002 0.5 33488896 0 0 0 0
8.9000006 7.3000002 0.5 33488896 0 0 0 0
9 7.3000002 0.5 33488896 0 0 0 0
9.1000004 7.3000002 0.5 33488896 0 0 0 0
9.1999998 7.3000002 0.5 33488896 0 0 0 0
9.3000002 7.3000002 0.5 33488896 0 0 0 0
9.4000006 7.3000002 0.5 33488896 0 0 0 0
9.5 7.3000002 0.5 33488896 0 0 0 0
8.8000002 7.4000001 0.5 33488896 0 0 0 0
8.9000006 7.4000001 0.5 33488896 0 0 0 0
9 7.4000001 0.5 33488896 0 0 0 0
9.1000004 7.4000001 0.5 33488896 0 0 0 0
9.1999998 7.4000001 0.5 33488896 0 0 0 0
9.3000002 7.4000001 0.5 33488896 0 0 0 0
9.4000006 7.4000001 0.5 33488896 0 0 0 0
9.5 7.4000001 0.5 33488896 0 0 0 0
8.8000002 7.2000003 1.4 33488896 0 0 0 0
8.9000006 7.2000003 1.4 33488896 0 0 0 0
9 7.2000003 1.4 33488896 0 0 0 0
9.1000004 7.2000003 1.4 33488896 0 0 0 0
9.1999998 7.2000003 1.4 33488896 0 0 0 0
9.3000002 7.2000003 1.4 33488896 0 0 0 0
9.4000006 7.2000003 1.4 33488896 0 0 0 0
9.5 7.2000003 1.4 33488896 0 0 0 0
8.8000002 7.8000002 0.60000002 33488896 0 0 0 0
8.8000002 7.2000003 0.69999999 33488896 0 0 0 0
8.9000006 7.2000003 0.69999999 33488896 0 0 0 0
9 7.2000003 0.69999999 33488896 0 0 0 0
9.1000004 7.2000003 0.69999999 33488896 0 0 0 0
9.1999998 7.2000003 0.69999999 33488896 0 0 0 0
9.3000002 7.2000003 0.69999999 33488896 0 0 0 0
9.4000006 7.2000003 0.69999999 33488896 0 0 0 0
9.5 7.2000003 0.69999999 33488896 0 0 0 0
8.8000002 7.3000002 0.69999999 33488896 0 0 0 0
8.9000006 7.3000002 0.69999999 33488896 0 0 0 0
9 7.3000002 0.69999999 33488896 0 0 0 0
9.1000004 7.3000002 0.69999999 33488896 0 0 0 0
9.1999998 7.3000002 0.69999999 33488896 0 0 0 0
9.3000002 7.3000002 0.69999999 33488896 0 0 0 0
9.4000006 7.3000002 0.69999999 33488896 0 0 0 0
9.5 7.3000002 0.69999999 33488896 0 0 0 0
8.8000002 7.4000001 0.69999999 33488896 0 0 0 0
8.9000006 7.4000001 0.69999999 33488896 0 0 0 0
9 7.4000001 0.69999999 33488896 0 0 0 0
9.1000004 7.4000001 0.69999999 33488896 0 0 0 0
9.1999998 7.4000001 0.69999999 33488896 0 0 0 0
9.3000002 7.4000001 0.69999999 33488896 0 0 0 0
9.4000006 7.4000001 0.69999999 33488896 0 0 0 0
9.5 7.4000001 0.69999999 33488896 0 0 0 0
8.8000002 7.5000005 0.69999999 33488896 0 0 0 0
8.9000006 7.5000005 0.69999999 33488896 0 0 0 0
9 7.5000005 0.69999999 33488896 0 0 0 0
8.8000002 7.2000003 0.60000002 33488896 0 0 0 0
8.9000006 7.2000003 0.60000002 33488896 0 0 0 0
9 7.2000003 0.60000002 33488896 0 0 0 0
9.1000004 7.2000003 0.60000002 33488896 0 0 0 0
9.1999998 7.2000003 0.60000002 33488896 0 0 0 0
9.3000002 7.2000003 0.60000002 33488896 0 0 0 0
9.4000006 7.2000003 0.60000002 33488896 0 0 0 0
9.5 7.2000003 0.60000002 33488896 0 0 0 0
8.8000002 7.3000002 0.60000002 33488896 0 0 0 0
8.9000006 7.3000002 0.60000002 33488896 0 0 0 0
9 7.3000002 0.60000002 33488896 0 0 0 0
9.1000004 7.3000002 0.60000002 33488896 0 0 0 0
9.1999998 7.3000002 0.60000002 33488896 0 0 0 0
9.3000002 7.3000002 0.60000002 33488896 0 0 0 0
9.4000006 7.3000002 0.60000002 33488896 0 0 0 0
9.5 7.3000002 0.60000002 33488896 0 0 0 0
8.8000002 7.4000001 0.60000002 33488896 0 0 0 0
8.9000006 7.4000001 0.60000002 33488896 0 0 0 0
9 7.4000001 0.60000002 33488896 0 0 0 0
9.1000004 7.4000001 0.60000002 33488896 0 0 0 0
9.1999998 7.4000001 0.60000002 33488896 0 0 0 0
9.3000002 7.4000001 0.60000002 33488896 0 0 0 0
9.4000006 7.4000001 0.60000002 33488896 0 0 0 0
9.5 7.4000001 0.60000002 33488896 0 0 0 0
8.8000002 7.2000003 1.5 33488896 0 0 0 0
8.9000006 7.2000003 1.5 33488896 0 0 0 0
9 7.2000003 1.5 33488896 0 0 0 0
9.1000004 7.2000003 1.5 33488896 0 0 0 0
9.1999998 7.2000003 1.5 33488896 0 0 0 0
9.3000002 7.2000003 1.5 33488896 0 0 0 0
9.4000006 7.2000003 1.5 33488896 0 0 0 0
9.5 7.2000003 1.5 33488896 0 0 0 0
8.8000002 7.2000003 0.40000001 33488896 0 0 0 0
8.9000006 7.2000003 0.40000001 33488896 0 0 0 0
9 7.2000003 0.40000001 33488896 0 0 0 0
9.1000004 7.2000003 0.40000001 33488896 0 0 0 0
9.1999998 7.2000003 0.40000001 33488896 0 0 0 0
9.3000002 7.2000003 0.40000001 33488896 0 0 0 0
9.4000006 7.2000003 0.40000001 33488896 0 0 0 0
9.5 7.2000003 0.40000001 33488896 0 0 0 0
8.8000002 7.3000002 0.40000001 33488896 0 0 0 0
8.9000006 7.3000002 0.40000001 33488896 0 0 0 0
9 7.3000002 0.40000001 33488896 0 0 0 0
9.1000004 7.3000002 0.40000001 33488896 0 0 0 0
9.1999998 7.3000002 0.40000001 33488896 0 0 0 0
9.3000002 7.3000002 0.40000001 33488896 0 0 0 0
9.4000006 7.3000002 0.40000001 33488896 0 0 0 0
9.5 7.3000002 0.40000001 33488896 0 0 0 0
8.8000002 7.4000001 0.40000001 33488896 0 0 0 0
8.9000006 7.4000001 0.40000001 33488896 0 0 0 0
9 7.4000001 0.40000001 33488896 0 0 0 0
9.1000004 7.4000001 0.40000001 33488896 0 0 0 0
9.1999998 7.4000001 0.40000001 33488896 0 0 0 0
9.3000002 7.4000001 0.40000001 33488896 0 0 0 0
9.4000006 7.4000001 0.40000001 33488896 0 0 0 0
9.5 7.4000001 0.40000001 33488896 0 0 0 0
6.5999999 6.8000002 0.80000001 33488896 0 0 0 0
6.9000001 6.8000002 0.80000001 33488896 0 0 0 0
6.4000001 6.9000001 0.80000001 33488896 0 0 0 0
6.5 6.9000001 0.80000001 33488896 0 0 0 0
6.5999999 6.9000001 0.80000001 33488896 0 0 0 0
6.7000003 6.9000001 0.80000001 33488896 0 0 0 0
6.8000002 6.9000001 0.80000001 33488896 0 0 0 0
6.9000001 6.9000001 0.80000001 33488896 0 0 0 0
7 6.9000001 0.80000001 33488896 0 0 0 0
7.0999999 6.9000001 0.80000001 33488896 0 0 0 0
6.4000001 7 0.80000001 33488896 0 0 0 0
6.5 7 0.80000001 33488896 0 0 0 0
6.5999999 7 0.80000001 33488896 0 0 0 0
6.7000003 7 0.80000001 33488896 0 0 0 0
6.8000002 7 0.80000001 33488896 0 0 0 0
6.9000001 7 0.80000001 33488896 0 0 0 0
7 7 0.80000001 33488896 0 0 0 0
7.0999999 7 0.80000001 33488896 0 0 0 0
6.4000001 7.0999999 0.80000001 33488896 0 0 0 0
6.5 7.0999999 0.80000001 33488896 0 0 0 0
6.5999999 7.0999999 0.80000001 33488896 0 0 0 0
6.7000003 7.0999999 0.80000001 33488896 0 0 0 0
6.8000002 7.0999999 0.80000001 33488896 0 0 0 0
6.9000001 7.0999999 0.80000001 33488896 0 0 0 0
7 7.0999999 0.80000001 33488896 0 0 0 0
7.0999999 7.0999999 0.80000001 33488896 0 0 0 0
6.5 6.8000002 0.90000004 33488896 0 0 0 0
6.5999999 6.8000002 0.90000004 33488896 0 0 0 0
6.5 6.9000001 0.90000004 33488896 0 0 0 0
6.5999999 6.9000001 0.90000004 33488896 0 0 0 0
6.7000003 6.9000001 0.90000004 33488896 0 0 0 0
6.8000002 6.9000001 0.90000004 33488896 0 0 0 0
6.9000001 6.9000001 0.90000004 33488896 0 0 0 0
7 6.9000001 0.90000004 33488896 0 0 0 0
7.0999999 6.9000001 0.90000004 33488896 0 0 0 0
6.4000001 7 0.90000004 33488896 0 0 0 0
6.5 7 0.90000004 33488896 0 0 0 0
6.5999999 7 0.90000004 33488896 0 0 0 0
6.7000003 7 0.90000004 33488896 0 0 0 0
6.8000002 7 0.90000004 33488896 0 0 0 0
6.9000001 7 0.90000004 33488896 0 0 0 0
7 7 0.90000004 33488896 0 0 0 0
7.0999999 7 0.90000004 33488896 0 0 0 0
6.4000001 7.0999999 0.90000004 33488896 0 0 0 0
6.5 7.0999999 0.90000004 33488896 0 0 0 0
6.5999999 7.0999999 0.90000004 33488896 0 0 0 0
6.7000003 7.0999999 0.90000004 33488896 0 0 0 0
6.8000002 7.0999999 0.90000004 33488896 0 0 0 0
6.9000001 7.0999999 0.90000004 33488896 0 0 0 0
7 7.0999999 0.90000004 33488896 0 0 0 0
7.0999999 7.0999999 0.90000004 33488896 0 0 0 0
7 6.9000001 1.1 33488896 0 0 0 0
7.0999999 6.9000001 1.1 33488896 0 0 0 0
6.4000001 7 1.1 33488896 0 0 0 0
6.5 7 1.1 33488896 0 0 0 0
6.5999999 7 1.1 33488896 0 0 0 0
6.7000003 7 1.1 33488896 0 0 0 0
6.8000002 7 1.1 33488896 0 0 0 0
6.9000001 7 1.1 33488896 0 0 0 0
7 7 1.1 33488896 0 0 0 0
7.0999999 7 1.1 33488896 0 0 0 0
6.4000001 7.0999999 1.1 33488896 0 0 0 0
6.5 7.0999999 1.1 33488896 0 0 0 0
6.5999999 7.0999999 1.1 33488896 0 0 0 0
6.7000003 7.0999999 1.1 33488896 0 0 0 0
6.8000002 7.0999999 1.1 33488896 0 0 0 0
6.9000001 7.0999999 1.1 33488896 0 0 0 0
7 7.0999999 1.1 33488896 0 0 0 0
7.0999999 7.0999999 1.1 33488896 0 0 0 0
6.9000001 6.9000001 1 33488896 0 0 0 0
7 6.9000001 1 33488896 0 0 0 0
7.0999999 6.9000001 1 33488896 0 0 0 0
6.4000001 7 1 33488896 0 0 0 0
6.5 7 1 33488896 0 0 0 0
6.7000003 7 1 33488896 0 0 0 0
6.8000002 7 1 33488896 0 0 0 0
6.9000001 7 1 33488896 0 0 0 0
7 7 1 33488896 0 0 0 0
7.0999999 7 1 33488896 0 0 0 0
6.4000001 7.0999999 1 33488896 0 0 0 0
6.5 7.0999999 1 33488896 0 0 0 0
6.5999999 7.0999999 1 33488896 0 0 0 0
6.7000003 7.0999999 1 33488896 0 0 0 0
6.8000002 7.0999999 1 33488896 0 0 0 0
6.9000001 7.0999999 1 33488896 0 0 0 0
7 7.0999999 1 33488896 0 0 0 0
7.0999999 7.0999999 1 33488896 0 0 0 0
6.5999999 6.8000002 0.1 33488896 0 0 0 0
6.9000001 6.8000002 0.1 33488896 0 0 0 0
6.4000001 6.9000001 0.1 33488896 0 0 0 0
6.5 6.9000001 0.1 33488896 0 0 0 0
6.5999999 6.9000001 0.1 33488896 0 0 0 0
6.7000003 6.9000001 0.1 33488896 0 0 0 0
6.9000001 6.9000001 0.1 33488896 0 0 0 0
7 6.9000001 0.1 33488896 0 0 0 0
6.4000001 7 0.1 33488896 0 0 0 0
6.5 7 0.1 33488896 0 0 0 0
6.5999999 7 0.1 33488896 0 0 0 0
6.7000003 7 0.1 33488896 0 0 0 0
6.8000002 7 0.1 33488896 0 0 0 0
6.9000001 7 0.1 33488896 0 0 0 0
7 7 0.1 33488896 0 0 0 0
7.0999999 7 0.1 33488896 0 0 0 0
6.4000001 7.0999999 0.1 33488896 0 0 0 0
6.5 7.0999999 0.1 33488896 0 0 0 0
6.5999999 7.0999999 0.1 33488896 0 0 0 0
6.7000003 7.0999999 0.1 33488896 0 0 0 0
6.8000002 7.0999999 0.1 33488896 0 0 0 0
6.9000001 7.0999999 0.1 33488896 0 0 0 0
7 7.0999999 0.1 33488896 0 0 0 0
7.0999999 7.0999999 0.1 33488896 0 0 0 0
6.5999999 6.8000002 0.30000001 33488896 0 0 0 0
6.9000001 6.8000002 0.30000001 33488896 0 0 0 0
6.4000001 6.9000001 0.30000001 33488896 0 0 0 0
6.5 6.9000001 0.30000001 33488896 0 0 0 0
6.5999999 6.9000001 0.30000001 33488896 0 0 0 0
6.7000003 6.9000001 0.30000001 33488896 0 0 0 0
6.8000002 6.9000001 0.30000001 33488896 0 0 0 0
6.9000001 6.9000001 0.30000001 33488896 0 0 0 0
7 6.9000001 0.30000001 33488896 0 0 0 0
7.0999999 6.9000001 0.30000001 33488896 0 0 0 0
6.4000001 7 0.30000001 33488896 0 0 0 0
6.5 7 0.30000001 33488896 0 0 0 0
6.5999999 7 0.30000001 33488896 0 0 0 0
6.7000003 7 0.30000001 33488896 0 0 0 0
6.8000002 7 0.30000001 33488896 0 0 0 0
6.9000001 7 0.30000001 33488896 0 0 0 0
7 7 0.30000001 33488896 0 0 0 0
7.0999999 7 0.30000001 33488896 0 0 0 0
6.4000001 7.0999999 0.30000001 33488896 0 0 0 0
6.5 7.0999999 0.30000001 33488896 0 0 0 0
6.5999999 7.0999999 0.30000001 33488896 0 0 0 0
6.7000003 7.0999999 0.30000001 33488896 0 0 0 0
6.8000002 7.0999999 0.30000001 33488896 0 0 0 0
6.9000001 7.0999999 0.30000001 33488896 0 0 0 0
7 7.0999999 0.30000001 33488896 0 0 0 0
7.0999999 7.0999999 0.30000001 33488896 0 0 0 0
6.5999999 6.8000002 0.5 33488896 0 0 0 0
6.9000001 6.8000002 0.5 33488896 0 0 0 0
6.4000001 6.9000001 0.5 33488896 0 0 0 0
6.5 6.9000001 0.5 33488896 0 0 0 0
6.5999999 6.9000001 0.5 33488896 0 0 0 0
6.7000003 6.9000001 0.5 33488896 0 0 0 0
6.8000002 6.9000001 0.5 33488896 0 0 0 0
6.9000001 6.9000001 0.5 33488896 0 0 0 0
7 6.9000001 0.5 33488896 0 0 0 0
7.0999999 6.9000001 0.5 33488896 0 0 0 0
6.4000001 7 0.5 33488896 0 0 0 0
6.5 7 0.5 33488896 0 0 0 0
6.5999999 7 0.5 33488896 0 0 0 0
6.7000003 7 0.5 33488896 0 0 0 0
6.8000002 7 0.5 33488896 0 0 0 0
6.9000001 7 0.5 33488896 0 0 0 0
7 7 0.5 33488896 0 0 0 0
7.0999999 7 0.5 33488896 0 0 0 0
6.4000001 7.0999999 0.5 33488896 0 0 0 0
6.5 7.0999999 0.5 33488896 0 0 0 0
6.5999999 7.0999999 0.5 33488896 0 0 0 0
6.7000003 7.0999999 0.5 33488896 0 0 0 0
6.8000002 7.0999999 0.5 33488896 0 0 0 0
6.9000001 7.0999999 0.5 33488896 0 0 0 0
7 7.0999999 0.5 33488896 0 0 0 0
7.0999999 7.0999999 0.5 33488896 0 0 0 0
6.5999999 6.8000002 0.2 33488896 0 0 0 0
6.4000001 6.9000001 0.2 33488896 0 0 0 0
6.5 6.9000001 0.2 33488896 0 0 0 0
6.5999999 6.9000001 0.2 33488896 0 0 0 0
6.7000003 6.9000001 0.2 33488896 0 0 0 0
6.8000002 6.9000001 0.2 33488896 0 0 0 0
6.9000001 6.9000001 0.2 33488896 0 0 0 0
7 6.9000001 0.2 33488896 0 0 0 0
6.4000001 7 0.2 33488896 0 0 0 0
6.5 7 0.2 33488896 0 0 0 0
6.5999999 7 0.2 33488896 0 0 0 0
6.7000003 7 0.2 33488896 0 0 0 0
6.8000002 7 0.2 33488896 0 0 0 0
6.9000001 7 0.2 33488896 0 0 0 0
7 7 0.2 33488896 0 0 0 0
7.0999999 7 0.2 33488896 0 0 0 0
6.4000001 7.0999999 0.2 33488896 0 0 0 0
6.5 7.0999999 0.2 33488896 0 0 0 0
6.5999999 7.0999999 0.2 33488896 0 0 0 0
6.7000003 7.0999999 0.2 33488896 0 0 0 0
6.8000002 7.0999999 0.2 33488896 0 0 0 0
6.9000001 7.0999999 0.2 33488896 0 0 0 0
7 7.0999999 0.2 33488896 0 0 0 0
7.0999999 7.0999999 0.2 33488896 0 0 0 0
6.5999999 6.8000002 0.69999999 33488896 0 0 0 0
6.4000001 6.9000001 0.69999999 33488896 0 0 0 0
6.5 6.9000001 0.69999999 33488896 0 0 0 0
6.5999999 6.9000001 0.69999999 33488896 0 0 0 0
6.7000003 6.9000001 0.69999999 33488896 0 0 0 0
6.8000002 6.9000001 0.69999999 33488896 0 0 0 0
6.9000001 6.9000001 0.69999999 33488896 0 0 0 0
7 6.9000001 0.69999999 33488896 0 0 0 0
7.0999999 6.9000001 0.69999999 33488896 0 0 0 0
6.4000001 7 0.69999999 33488896 0 0 0 0
6.5 7 0.69999999 33488896 0 0 0 0
6.5999999 7 0.69999999 33488896 0 0 0 0
6.7000003 7 0.69999999 33488896 0 0 0 0
6.8000002 7 0.69999999 33488896 0 0 0 0
6.9000001 7 0.69999999 33488896 0 0 0 0
7 7 0.69999999 33488896 0 0 0 0
7.0999999 7 0.69999999 33488896 0 0 0 0
6.4000001 7.0999999 0.69999999 33488896 0 0 0 0
6.5 7.0999999 0.69999999 33488896 0 0 0 0
6.5999999 7.0999999 0.69999999 33488896 0 0 0 0
6.7000003 7.0999999 0.69999999 33488896 0 0 0 0
6.8000002 7.0999999 0.69999999 33488896 0 0 0 0
6.9000001 7.0999999 0.69999999 33488896 0 0 0 0
7 7.0999999 0.69999999 33488896 0 0 0 0
7.0999999 7.0999999 0.69999999 33488896 0 0 0 0
6.5 6.8000002 0 33488896 0 0 0 0
6.5999999 6.8000002 0 33488896 0 0 0 0
6.9000001 6.8000002 0 33488896 0 0 0 0
6.4000001 6.9000001 0 33488896 0 0 0 0
6.5 6.9000001 0 33488896 0 0 0 0
6.5999999 6.9000001 0 33488896 0 0 0 0
6.7000003 6.9000001 0 33488896 0 0 0 0
6.9000001 6.9000001 0 33488896 0 0 0 0
7 6.9000001 0 33488896 0 0 0 0
6.4000001 7 0 33488896 0 0 0 0
6.5 7 0 33488896 0 0 0 0
6.5999999 7 0 33488896 0 0 0 0
6.7000003 7 0 33488896 0 0 0 0
6.8000002 7 0 33488896 0 0 0 0
6.9000001 7 0 33488896 0 0 0 0
7 7 0 33488896 0 0 0 0
7.0999999 7 0 33488896 0 0 0 0
6.4000001 7.0999999 0 33488896 0 0 0 0
6.5 7.0999999 0 33488896 0 0 0 0
6.5999999 7.0999999 0 33488896 0 0 0 0
6.7000003 7.0999999 0 33488896 0 0 0 0
6.8000002 7.0999999 0 33488896 0 0 0 0
6.9000001 7.0999999 0 33488896 0 0 0 0
7 7.0999999 0 33488896 0 0 0 0
7.0999999 7.0999999 0 33488896 0 0 0 0
6.5999999 6.8000002 0.40000001 33488896 0 0 0 0
6.4000001 6.9000001 0.40000001 33488896 0 0 0 0
6.5 6.9000001 0.40000001 33488896 0 0 0 0
6.5999999 6.9000001 0.40000001 33488896 0 0 0 0
6.7000003 6.9000001 0.40000001 33488896 0 0 0 0
6.8000002 6.9000001 0.40000001 33488896 0 0 0 0
6.9000001 6.9000001 0.40000001 33488896 0 0 0 0
7 6.9000001 0.40000001 33488896 0 0 0 0
7.0999999 6.9000001 0.40000001 33488896 0 0 0 0
6.4000001 7 0.40000001 33488896 0 0 0 0
6.5 7 0.40000001 33488896 0 0 0 0
6.5999999 7 0.40000001 33488896 0 0 0 0
6.7000003 7 0.40000001 33488896 0 0 0 0
6.8000002 7 0.40000001 33488896 0 0 0 0
6.9000001 7 0.40000001 33488896 0 0 0 0
7 7 0.40000001 33488896 0 0 0 0
7.0999999 7 0.40000001 33488896 0 0 0 0
6.4000001 7.0999999 0.40000001 33488896 0 0 0 0
6.5 7.0999999 0.40000001 33488896 0 0 0 0
6.5999999 7.0999999 0.40000001 33488896 0 0 0 0
6.7000003 7.0999999 0.40000001 33488896 0 0 0 0
6.8000002 7.0999999 0.40000001 33488896 0 0 0 0
6.9000001 7.0999999 0.40000001 33488896 0 0 0 0
7 7.0999999 0.40000001 33488896 0 0 0 0
7.0999999 7.0999999 0.40000001 33488896 0 0 0 0
6.5999999 6.8000002 0.60000002 33488896 0 0 0 0
6.9000001 6.8000002 0.60000002 33488896 0 0 0 0
6.4000001 6.9000001 0.60000002 33488896 0 0 0 0
6.5 6.9000001 0.60000002 33488896 0 0 0 0
6.5999999 6.9000001 0.60000002 33488896 0 0 0 0
6.7000003 6.9000001 0.60000002 33488896 0 0 0 0
6.8000002 6.9000001 0.60000002 33488896 0 0 0 0
6.9000001 6.9000001 0.60000002 33488896 0 0 0 0
7 6.9000001 0.60000002 33488896 0 0 0 0
7.0999999 6.9000001 0.60000002 33488896 0 0 0 0
6.4000001 7 0.60000002 33488896 0 0 0 0
6.5 7 0.60000002 33488896 0 0 0 0
6.5999999 7 0.60000002 33488896 0 0 0 0
6.7000003 7 0.60000002 33488896 0 0 0 0
6.8000002 7 0.60000002 33488896 0 0 0 0
6.9000001 7 0.60000002 33488896 0 0 0 0
7 7 0.60000002 33488896 0 0 0 0
7.0999999 7 0.60000002 33488896 0 0 0 0
6.4000001 7.0999999 0.60000002 33488896 0 0 0 0
6.5 7.0999999 0.60000002 33488896 0 0 0 0
6.5999999 7.0999999 0.60000002 33488896 0 0 0 0
6.7000003 7.0999999 0.60000002 33488896 0 0 0 0
6.8000002 7.0999999 0.60000002 33488896 0 0 0 0
6.9000001 7.0999999 0.60000002 33488896 0 0 0 0
7 7.0999999 0.60000002 33488896 0 0 0 0
7.0999999 7.0999999 0.60000002 33488896 0 0 0 0
8.8000002 7.6000004 0.69999999 33488896 0 0 0 0
8.9000006 7.6000004 0.69999999 33488896 0 0 0 0
9 7.6000004 0.69999999 33488896 0 0 0 0
8.8000002 7.7000003 0.69999999 33488896 0 0 0 0
8.9000006 7.7000003 0.69999999 33488896 0 0 0 0
9 7.7000003 0.69999999 33488896 0 0 0 0
8.8000002 7.8000002 0.69999999 33488896 0 0 0 0
8.9000006 7.8000002 0.69999999 33488896 0 0 0 0
9 7.8000002 0.69999999 33488896 0 0 0 0
8.8000002 7.9000001 0.69999999 33488896 0 0 0 0
8.9000006 7.9000001 0.69999999 33488896 0 0 0 0
9 7.9000001 0.69999999 33488896 0 0 0 0
8.8000002 7.2000003 1.3000001 33488896 0 0 0 0
8.9000006 7.2000003 1.3000001 33488896 0 0 0 0
9 7.2000003 1.3000001 33488896 0 0 0 0
9.1000004 7.2000003 1.3000001 33488896 0 0 0 0
9.1999998 7.2000003 1.3000001 33488896 0 0 0 0
9.3000002 7.2000003 1.3000001 33488896 0 0 0 0
9.4000006 7.2000003 1.3000001 33488896 0 0 0 0
9.5 7.2000003 1.3000001 33488896 0 0 0 0
9.3000002 7.6000004 0.90000004 33488896 0 0 0 0
9.4000006 7.6000004 0.90000004 33488896 0 0 0 0
9.5 7.6000004 0.90000004 33488896 0 0 0 0
9.3000002 7.7000003 0.90000004 33488896 0 0 0 0
9.4000006 7.7000003 0.90000004 33488896 0 0 0 0
9.5 7.7000003 0.90000004 33488896 0 0 0 0
9.3000002 7.8000002 0.90000004 33488896 0 0 0 0
9.4000006 7.8000002 0.90000004 33488896 0 0 0 0
9.5 7.8000002 0.90000004 33488896 0 0 0 0
9.3000002 7.9000001 0.90000004 33488896 0 0 0 0
9.4000006 7.9000001 0.90000004 33488896 0 0 0 0
9.5 7.9000001 0.90000004 33488896 0 0 0 0
8.8000002 7.2000003 0.1 33488896 0 0 0 0
8.9000006 7.2000003 0.1 33488896 0 0 0 0
9 7.2000003 0.1 33488896 0 0 0 0
9.1000004 7.2000003 0.1 33488896 0 0 0 0
9.1999998 7.2000003 0.1 33488896 0 0 0 0
9.3000002 7.2000003 0.1 33488896 0 0 0 0
9.4000006 7.2000003 0.1 33488896 0 0 0 0
9.5 7.2000003 0.1 33488896 0 0 0 0
8.8000002 7.3000002 0.1 33488896 0 0 0 0
8.9000006 7.3000002 0.1 33488896 0 0 0 0
9 7.3000002 0.1 33488896 0 0 0 0
9.1000004 7.3000002 0.1 33488896 0 0 0 0
9.1999998 7.3000002 0.1 33488896 0 0 0 0
9.3000002 7.3000002 0.1 33488896 0 0 0 0
9.4000006 7.3000002 0.1 33488896 0 0 0 0
9.5 7.3000002 0.1 33488896 0 0 0 0
8.8000002 7.4000001 0.1 33488896 0 0 0 0
8.9000006 7.4000001 0.1 33488896 0 0 0 0
9 7.4000001 0.1 33488896 0 0 0 0
9.1000004 7.4000001 0.1 33488896 0 0 0 0
9.1999998 7.4000001 0.1 33488896 0 0 0 0
9.3000002 7.4000001 0.1 33488896 0 0 0 0
9.4000006 7.4000001 0.1 33488896 0 0 0 0
9.5 7.4000001 0.1 33488896 0 0 0 0
8.8000002 7.2000003 0 33488896 0 0 0 0
8.9000006 7.2000003 0 33488896 0 0 0 0
9 7.2000003 0 33488896 0 0 0 0
9.1000004 7.2000003 0 33488896 0 0 0 0
9.1999998 7.2000003 0 33488896 0 0 0 0
9.3000002 7.2000003 0 33488896 0 0 0 0
9.4000006 7.2000003 0 33488896 0 0 0 0
9.5 7.2000003 0 33488896 0 0 0 0
8.8000002 7.3000002 0 33488896 0 0 0 0
8.9000006 7.3000002 0 33488896 0 0 0 0
9 7.3000002 0 33488896 0 0 0 0
9.1000004 7.3000002 0 33488896 0 0 0 0
9.1999998 7.3000002 0 33488896 0 0 0 0
9.3000002 7.3000002 0 33488896 0 0 0 0
9.4000006 7.3000002 0 33488896 0 0 0 0
9.5 7.3000002 0 33488896 0 0 0 0
8.8000002 7.4000001 0 33488896 0 0 0 0
8.9000006 7.4000001 0 33488896 0 0 0 0
9 7.4000001 0 33488896 0 0 0 0
9.1000004 7.4000001 0 33488896 0 0 0 0
9.1999998 7.4000001 0 33488896 0 0 0 0
9.3000002 7.4000001 0 33488896 0 0 0 0
9.4000006 7.4000001 0 33488896 0 0 0 0
9.5 7.4000001 0 33488896 0 0 0 0
8.8000002 7 2.2 33488896 0 0 0 0
8.9000006 7 2.2 33488896 0 0 0 0
9 7 2.2 33488896 0 0 0 0
9.1000004 7 2.2 33488896 0 0 0 0
9.1999998 7 2.2 33488896 0 0 0 0
9.3000002 7 2.2 33488896 0 0 0 0
9.4000006 7 2.2 33488896 0 0 0 0
9.5 7 2.2 33488896 0 0 0 0
8.8000002 7.0999999 2.2 33488896 0 0 0 0
8.9000006 7.0999999 2.2 33488896 0 0 0 0
9 7.0999999 2.2 33488896 0 0 0 0
9.1000004 7.0999999 2.2 33488896 0 0 0 0
9.1999998 7.0999999 2.2 33488896 0 0 0 0
9.3000002 7.0999999 2.2 33488896 0 0 0 0
9.4000006 7.0999999 2.2 33488896 0 0 0 0
9.5 7.0999999 2.2 33488896 0 0 0 0
7.2000003 7 0.2 33488896 0 0 0 0
7.2000003 7.0999999 0.2 33488896 0 0 0 0
7.3000002 7.0999999 0.2 33488896 0 0 0 0
7.4000001 7.0999999 0.2 33488896 0 0 0 0
7.5000005 7.0999999 0.2 33488896 0 0 0 0
7.6000004 7.0999999 0.2 33488896 0 0 0 0
7.7000003 7.0999999 0.2 33488896 0 0 0 0
7.8000002 7.0999999 0.2 33488896 0 0 0 0
7.9000001 7.0999999 0.2 33488896 0 0 0 0
8.8000002 7 2.1000001 33488896 0 0 0 0
8.9000006 7 2.1000001 33488896 0 0 0 0
9 7 2.1000001 33488896 0 0 0 0
9.1000004 7 2.1000001 33488896 0 0 0 0
9.1999998 7 2.1000001 33488896 0 0 0 0
9.3000002 7 2.1000001 33488896 0 0 0 0
9.4000006 7 2.1000001 33488896 0 0 0 0
9.5 7 2.1000001 33488896 0 0 0 0
8.8000002 7.0999999 2.1000001 33488896 0 0 0 0
8.9000006 7.0999999 2.1000001 33488896 0 0 0 0
9 7.0999999 2.1000001 33488896 0 0 0 0
9.1000004 7.0999999 2.1000001 33488896 0 0 0 0
9.1999998 7.0999999 2.1000001 33488896 0 0 0 0
9.3000002 7.0999999 2.1000001 33488896 0 0 0 0
9.4000006 7.0999999 2.1000001 33488896 0 0 0 0
9.5 7.0999999 2.1000001 33488896 0 0 0 0
7.2000003 6.8000002 -0.1 33488896 0 0 0 0
7.3000002 6.8000002 -0.1 33488896 0 0 0 0
7.4000001 6.8000002 -0.1 33488896 0 0 0 0
7.5000005 6.8000002 -0.1 33488896 0 0 0 0
7.6000004 6.8000002 -0.1 33488896 0 0 0 0
7.7000003 6.8000002 -0.1 33488896 0 0 0 0
7.8000002 6.8000002 -0.1 33488896 0 0 0 0
7.9000001 6.8000002 -0.1 33488896 0 0 0 0
7.2000003 6.9000001 -0.1 33488896 0 0 0 0
7.3000002 6.9000001 -0.1 33488896 0 0 0 0
7.4000001 6.9000001 -0.1 33488896 0 0 0 0
7.5000005 6.9000001 -0.1 33488896 0 0 0 0
7.6000004 6.9000001 -0.1 33488896 0 0 0 0
7.7000003 6.9000001 -0.1 33488896 0 0 0 0
7.8000002 6.9000001 -0.1 33488896 0 0 0 0
7.9000001 6.9000001 -0.1 33488896 0 0 0 0
7.2000003 7 -0.1 33488896 0 0 0 0
7.3000002 7 -0.1 33488896 0 0 0 0
7.4000001 7 -0.1 33488896 0 0 0 0
7.5000005 7 -0.1 33488896 0 0 0 0
7.6000004 7 -0.1 33488896 0 0 0 0
7.7000003 7 -0.1 33488896 0 0 0 0
7.8000002 7 -0.1 33488896 0 0 0 0
7.9000001 7 -0.1 33488896 0 0 0 0
7.2000003 7.0999999 -0.1 33488896 0 0 0 0
7.3000002 7.0999999 -0.1 33488896 0 0 0 0
7.4000001 7.0999999 -0.1 33488896 0 0 0 0
7.5000005 7.0999999 -0.1 33488896 0 0 0 0
7.6000004 7.0999999 -0.1 33488896 0 0 0 0
7.7000003 7.0999999 -0.1 33488896 0 0 0 0
7.8000002 7.0999999 -0.1 33488896 0 0 0 0
7.9000001 7.0999999 -0.1 33488896 0 0 0 0
7.2000003 6.9000001 0.30000001 33488896 0 0 0 0
7.2000003 7 0.30000001 33488896 0 0 0 0
7.3000002 7 0.30000001 33488896 0 0 0 0
7.4000001 7 0.30000001 33488896 0 0 0 0
7.5000005 7 0.30000001 33488896 0 0 0 0
7.6000004 7 0.30000001 33488896 0 0 0 0
7.2000003 7.0999999 0.30000001 33488896 0 0 0 0
7.3000002 7.0999999 0.30000001 33488896 0 0 0 0
7.4000001 7.0999999 0.30000001 33488896 0 0 0 0
7.5000005 7.0999999 0.30000001 33488896 0 0 0 0
7.6000004 7.0999999 0.30000001 33488896 0 0 0 0
7.7000003 7.0999999 0.30000001 33488896 0 0 0 0
7.8000002 7.0999999 0.30000001 33488896 0 0 0 0
7.9000001 7.0999999 0.30000001 33488896 0 0 0 0
7.0999999 6.9000001 1.2 33488896 0 0 0 0
6.4000001 7 1.2 33488896 0 0 0 0
6.5 7 1.2 33488896 0 0 0 0
6.5999999 7 1.2 33488896 0 0 0 0
6.7000003 7 1.2 33488896 0 0 0 0
6.8000002 7 1.2 33488896 0 0 0 0
6.9000001 7 1.2 33488896 0 0 0 0
7 7 1.2 33488896 0 0 0 0
7.0999999 7 1.2 33488896 0 0 0 0
6.4000001 7.0999999 1.2 33488896 0 0 0 0
6.5 7.0999999 1.2 33488896 0 0 0 0
6.5999999 7.0999999 1.2 33488896 0 0 0 0
6.7000003 7.0999999 1.2 33488896 0 0 0 0
6.8000002 7.0999999 1.2 33488896 0 0 0 0
6.9000001 7.0999999 1.2 33488896 0 0 0 0
7 7.0999999 1.2 33488896 0 0 0 0
7.0999999 7.0999999 1.2 33488896 0 0 0 0
8.8000002 7.2000003 0.2 33488896 0 0 0 0
8.9000006 7.2000003 0.2 33488896 0 0 0 0
9 7.2000003 0.2 33488896 0 0 0 0
9.1000004 7.2000003 0.2 33488896 0 0 0 0
9.1999998 7.2000003 0.2 33488896 0 0 0 0
9.3000002 7.2000003 0.2 33488896 0 0 0 0
9.4000006 7.2000003 0.2 33488896 0 0 0 0
9.5 7.2000003 0.2 33488896 0 0 0 0
8.8000002 7.3000002 0.2 33488896 0 0 0 0
8.9000006 7.3000002 0.2 33488896 0 0 0 0
9 7.3000002 0.2 33488896 0 0 0 0
9.1000004 7.3000002 0.2 33488896 0 0 0 0
9.1999998 7.3000002 0.2 33488896 0 0 0 0
9.3000002 7.3000002 0.2 33488896 0 0 0 0
9.4000006 7.3000002 0.2 33488896 0 0 0 0
9.5 7.3000002 0.2 33488896 0 0 0 0
8.8000002 7.4000001 0.2 33488896 0 0 0 0
8.9000006 7.4000001 0.2 33488896 0 0 0 0
9 7.4000001 0.2 33488896 0 0 0 0
9.1000004 7.4000001 0.2 33488896 0 0 0 0
9.1999998 7.4000001 0.2 33488896 0 0 0 0
9.3000002 7.4000001 0.2 33488896 0 0 0 0
9.4000006 7.4000001 0.2 33488896 0 0 0 0
9.5 7.4000001 0.2 33488896 0 0 0 0
7.2000003 7 0 33488896 0 0 0 0
7.2000003 7.0999999 0 33488896 0 0 0 0
7.3000002 7.0999999 0 33488896 0 0 0 0
7.4000001 7.0999999 0 33488896 0 0 0 0
7.5000005 7.0999999 0 33488896 0 0 0 0
7.6000004 7.0999999 0 33488896 0 0 0 0
7.7000003 7.0999999 0 33488896 0 0 0 0
7.8000002 7.0999999 0 33488896 0 0 0 0
7.9000001 7.0999999 0 33488896 0 0 0 0
8.8000002 7 2 33488896 0 0 0 0
8.9000006 7 2 33488896 0 0 0 0
9 7 2 33488896 0 0 0 0
9.1000004 7 2 33488896 0 0 0 0
9.1999998 7 2 33488896 0 0 0 0
9.3000002 7 2 33488896 0 0 0 0
9.4000006 7 2 33488896 0 0 0 0
9.5 7 2 33488896 0 0 0 0
8.8000002 7.0999999 2 33488896 0 0 0 0
8.9000006 7.0999999 2 33488896 0 0 0 0
9 7.0999999 2 33488896 0 0 0 0
9.1000004 7.0999999 2 33488896 0 0 0 0
9.1999998 7.0999999 2 33488896 0 0 0 0
9.3000002 7.0999999 2 33488896 0 0 0 0
9.4000006 7.0999999 2 33488896 0 0 0 0
9.5 7.0999999 2 33488896 0 0 0 0
7.2000003 7.0999999 0.1 33488896 0 0 0 0
7.3000002 7.0999999 0.1 33488896 0 0 0 0
7.4000001 7.0999999 0.1 33488896 0 0 0 0
7.5000005 7.0999999 0.1 33488896 0 0 0 0
7.6000004 7.0999999 0.1 33488896 0 0 0 0
7.7000003 7.0999999 0.1 33488896 0 0 0 0
7.8000002 7.0999999 0.1 33488896 0 0 0 0
7.9000001 7.0999999 0.1 33488896 0 0 0 0
8.8000002 7 2.3 33488896 0 0 0 0
8.9000006 7 2.3 33488896 0 0 0 0
9 7 2.3 33488896 0 0 0 0
9.1000004 7 2.3 33488896 0 0 0 0
9.1999998 7 2.3 33488896 0 0 0 0
9.3000002 7 2.3 33488896 0 0 0 0
9.4000006 7 2.3 33488896 0 0 0 0
8.8000002 7.0999999 2.3 33488896 0 0 0 0
8.9000006 7.0999999 2.3 33488896 0 0 0 0
9 7.0999999 2.3 33488896 0 0 0 0
9.1000004 7.0999999 2.3 33488896 0 0 0 0
9.1999998 7.0999999 2.3 33488896 0 0 0 0
9.3000002 7.0999999 2.3 33488896 0 0 0 0
9.4000006 7.0999999 2.3 33488896 0 0 0 0
9.5 7.0999999 2.3 33488896 0 0 0 0
7.2000003 6.4000001 -0.1 33488896 0 0 0 0
7.3000002 6.4000001 -0.1 33488896 0 0 0 0
7.4000001 6.4000001 -0.1 33488896 0 0 0 0
7.5000005 6.4000001 -0.1 33488896 0 0 0 0
7.6000004 6.4000001 -0.1 33488896 0 0 0 0
7.7000003 6.4000001 -0.1 33488896 0 0 0 0
7.8000002 6.4000001 -0.1 33488896 0 0 0 0
7.9000001 6.4000001 -0.1 33488896 0 0 0 0
7.2000003 6.5 -0.1 33488896 0 0 0 0
7.3000002 6.5 -0.1 33488896 0 0 0 0
7.4000001 6.5 -0.1 33488896 0 0 0 0
7.5000005 6.5 -0.1 33488896 0 0 0 0
7.6000004 6.5 -0.1 33488896 0 0 0 0
7.7000003 6.5 -0.1 33488896 0 0 0 0
7.8000002 6.5 -0.1 33488896 0 0 0 0
7.9000001 6.5 -0.1 33488896 0 0 0 0
7.2000003 6.5999999 -0.1 33488896 0 0 0 0
7.3000002 6.5999999 -0.1 33488896 0 0 0 0
7.4000001 6.5999999 -0.1 33488896 0 0 0 0
7.5000005 6.5999999 -0.1 33488896 0 0 0 0
7.6000004 6.5999999 -0.1 33488896 0 0 0 0
7.7000003 6.5999999 -0.1 33488896 0 0 0 0
7.8000002 6.5999999 -0.1 33488896 0 0 0 0
7.9000001 6.5999999 -0.1 33488896 0 0 0 0
7.2000003 6.7000003 -0.1 33488896 0 0 0 0
7.3000002 6.7000003 -0.1 33488896 0 0 0 0
7.4000001 6.7000003 -0.1 33488896 0 0 0 0
7.5000005 6.7000003 -0.1 33488896 0 0 0 0
7.6000004 6.7000003 -0.1 33488896 0 0 0 0
7.7000003 6.7000003 -0.1 33488896 0 0 0 0
7.8000002 6.7000003 -0.1 33488896 0 0 0 0
7.9000001 6.7000003 -0.1 33488896 0 0 0 0
8.8000002 7.2000003 0.30000001 33488896 0 0 0 0
8.9000006 7.2000003 0.30000001 33488896 0 0 0 0
9 7.2000003 0.30000001 33488896 0 0 0 0
9.1000004 7.2000003 0.30000001 33488896 0 0 0 0
9.1999998 7.2000003 0.30000001 33488896 0 0 0 0
9.3000002 7.2000003 0.30000001 33488896 0 0 0 0
9.4000006 7.2000003 0.30000001 33488896 0 0 0 0
9.5 7.2000003 0.30000001 33488896 0 0 0 0
8.8000002 7.3000002 0.30000001 33488896 0 0 0 0
8.9000006 7.3000002 0.30000001 33488896 0 0 0 0
9 7.3000002 0.30000001 33488896 0 0 0 0
9.1000004 7.3000002 0.30000001 33488896 0 0 0 0
9.1999998 7.3000002 0.30000001 33488896 0 0 0 0
9.3000002 7.3000002 0.30000001 33488896 0 0 0 0
9.4000006 7.3000002 0.30000001 33488896 0 0 0 0
9.5 7.3000002 0.30000001 33488896 0 0 0 0
8.8000002 7.4000001 0.30000001 33488896 0 0 0 0
8.9000006 7.4000001 0.30000001 33488896 0 0 0 0
9 7.4000001 0.30000001 33488896 0 0 0 0
9.1000004 7.4000001 0.30000001 33488896 0 0 0 0
9.1999998 7.4000001 0.30000001 33488896 0 0 0 0
9.3000002 7.4000001 0.30000001 33488896 0 0 0 0
9.4000006 7.4000001 0.30000001 33488896 0 0 0 0
9.5 7.4000001 0.30000001 33488896 0 0 0 0
8.8000002 5.5999999 -0.1 33488896 0 0 0 0
8.9000006 5.5999999 -0.1 33488896 0 0 0 0
9 5.5999999 -0.1 33488896 0 0 0 0
9.1000004 5.5999999 -0.1 33488896 0 0 0 0
9.1999998 5.5999999 -0.1 33488896 0 0 0 0
9.3000002 5.5999999 -0.1 33488896 0 0 0 0
9.4000006 5.5999999 -0.1 33488896 0 0 0 0
9.5 5.5999999 -0.1 33488896 0 0 0 0
8.8000002 5.6999998 -0.1 33488896 0 0 0 0
8.9000006 5.6999998 -0.1 33488896 0 0 0 0
9 5.6999998 -0.1 33488896 0 0 0 0
9.1000004 5.6999998 -0.1 33488896 0 0 0 0
9.1999998 5.6999998 -0.1 33488896 0 0 0 0
9.3000002 5.6999998 -0.1 33488896 0 0 0 0
9.4000006 5.6999998 -0.1 33488896 0 0 0 0
9.5 5.6999998 -0.1 33488896 0 0 0 0
8.8000002 5.7999997 -0.1 33488896 0 0 0 0
8.9000006 5.7999997 -0.1 33488896 0 0 0 0
9 5.7999997 -0.1 33488896 0 0 0 0
9.1000004 5.7999997 -0.1 33488896 0 0 0 0
9.1999998 5.7999997 -0.1 33488896 0 0 0 0
9.3000002 5.7999997 -0.1 33488896 0 0 0 0
9.4000006 5.7999997 -0.1 33488896 0 0 0 0
9.5 5.7999997 -0.1 33488896 0 0 0 0
8.8000002 5.9000001 -0.1 33488896 0 0 0 0
8.9000006 5.9000001 -0.1 33488896 0 0 0 0
9 5.9000001 -0.1 33488896 0 0 0 0
9.1000004 5.9000001 -0.1 33488896 0 0 0 0
9.1999998 5.9000001 -0.1 33488896 0 0 0 0
9.3000002 5.9000001 -0.1 33488896 0 0 0 0
9.4000006 5.9000001 -0.1 33488896 0 0 0 0
9.5 5.9000001 -0.1 33488896 0 0 0 0
8.8000002 6 -0.1 33488896 0 0 0 0
8.9000006 6 -0.1 33488896 0 0 0 0
9 6 -0.1 33488896 0 0 0 0
9.1000004 6 -0.1 33488896 0 0 0 0
9.1999998 6 -0.1 33488896 0 0 0 0
9.3000002 6 -0.1 33488896 0 0 0 0
9.4000006 6 -0.1 33488896 0 0 0 0
9.5 6 -0.1 33488896 0 0 0 0
8.8000002 6.0999999 -0.1 33488896 0 0 0 0
8.9000006 6.0999999 -0.1 33488896 0 0 0 0
9 6.0999999 -0.1 33488896 0 0 0 0
9.1000004 6.0999999 -0.1 33488896 0 0 0 0
9.1999998 6.0999999 -0.1 33488896 0 0 0 0
9.3000002 6.0999999 -0.1 33488896 0 0 0 0
9.4000006 6.0999999 -0.1 33488896 0 0 0 0
9.5 6.0999999 -0.1 33488896 0 0 0 0
8.8000002 6.1999998 -0.1 33488896 0 0 0 0
8.9000006 6.1999998 -0.1 33488896 0 0 0 0
9 6.1999998 -0.1 33488896 0 0 0 0
9.1000004 6.1999998 -0.1 33488896 0 0 0 0
9.1999998 6.1999998 -0.1 33488896 0 0 0 0
9.3000002 6.1999998 -0.1 33488896 0 0 0 0
9.4000006 6.1999998 -0.1 33488896 0 0 0 0
9.5 6.1999998 -0.1 33488896 0 0 0 0
8.8000002 6.2999997 -0.1 33488896 0 0 0 0
8.9000006 6.2999997 -0.1 33488896 0 0 0 0
9 6.2999997 -0.1 33488896 0 0 0 0
9.1000004 6.2999997 -0.1 33488896 0 0 0 0
9.1999998 6.2999997 -0.1 33488896 0 0 0 0
9.3000002 6.2999997 -0.1 33488896 0 0 0 0
9.4000006 6.2999997 -0.1 33488896 0 0 0 0
9.5 6.2999997 -0.1 33488896 0 0 0 0
8.8000002 4 -0.1 33488896 0 0 0 0
8.9000006 4 -0.1 33488896 0 0 0 0
9 4 -0.1 33488896 0 0 0 0
9.1000004 4 -0.1 33488896 0 0 0 0
9.1999998 4 -0.1 33488896 0 0 0 0
9.3000002 4 -0.1 33488896 0 0 0 0
9.4000006 4 -0.1 33488896 0 0 0 0
9.5 4 -0.1 33488896 0 0 0 0
8.8000002 4.0999999 -0.1 33488896 0 0 0 0
8.9000006 4.0999999 -0.1 33488896 0 0 0 0
9 4.0999999 -0.1 33488896 0 0 0 0
9.1000004 4.0999999 -0.1 33488896 0 0 0 0
9.1999998 4.0999999 -0.1 33488896 0 0 0 0
9.3000002 4.0999999 -0.1 33488896 0 0 0 0
9.4000006 4.0999999 -0.1 33488896 0 0 0 0
9.5 4.0999999 -0.1 33488896 0 0 0 0
8.8000002 4.1999998 -0.1 33488896 0 0 0 0
8.9000006 4.1999998 -0.1 33488896 0 0 0 0
9 4.1999998 -0.1 33488896 0 0 0 0
9.1000004 4.1999998 -0.1 33488896 0 0 0 0
9.1999998 4.1999998 -0.1 33488896 0 0 0 0
9.3000002 4.1999998 -0.1 33488896 0 0 0 0
9.4000006 4.1999998 -0.1 33488896 0 0 0 0
9.5 4.1999998 -0.1 33488896 0 0 0 0
8.8000002 4.3000002 -0.1 33488896 0 0 0 0
8.9000006 4.3000002 -0.1 33488896 0 0 0 0
9 4.3000002 -0.1 33488896 0 0 0 0
9.1000004 4.3000002 -0.1 33488896 0 0 0 0
9.1999998 4.3000002 -0.1 33488896 0 0 0 0
9.3000002 4.3000002 -0.1 33488896 0 0 0 0
9.4000006 4.3000002 -0.1 33488896 0 0 0 0
9.5 4.3000002 -0.1 33488896 0 0 0 0
8 3.2 -0.1 33488896 0 0 0 0
8.1000004 3.2 -0.1 33488896 0 0 0 0
8.1999998 3.2 -0.1 33488896 0 0 0 0
8.3000002 3.2 -0.1 33488896 0 0 0 0
8.3999996 3.2 -0.1 33488896 0 0 0 0
8.5 3.2 -0.1 33488896 0 0 0 0
8.6000004 3.2 -0.1 33488896 0 0 0 0
8.6999998 3.2 -0.1 33488896 0 0 0 0
8 3.3 -0.1 33488896 0 0 0 0
8.1000004 3.3 -0.1 33488896 0 0 0 0
8.1999998 3.3 -0.1 33488896 0 0 0 0
8.3000002 3.3 -0.1 33488896 0 0 0 0
8.3999996 3.3 -0.1 33488896 0 0 0 0
8.5 3.3 -0.1 33488896 0 0 0 0
8.6000004 3.3 -0.1 33488896 0 0 0 0
8.6999998 3.3 -0.1 33488896 0 0 0 0
8 3.4000001 -0.1 33488896 0 0 0 0
8.1000004 3.4000001 -0.1 33488896 0 0 0 0
8.1999998 3.4000001 -0.1 33488896 0 0 0 0
8.3000002 3.4000001 -0.1 33488896 0 0 0 0
8.3999996 3.4000001 -0.1 33488896 0 0 0 0
8.5 3.4000001 -0.1 33488896 0 0 0 0
8.6000004 3.4000001 -0.1 33488896 0 0 0 0
8.6999998 3.4000001 -0.1 33488896 0 0 0 0
8 3.5 -0.1 33488896 0 0 0 0
8.1000004 3.5 -0.1 33488896 0 0 0 0
8.1999998 3.5 -0.1 33488896 0 0 0 0
8.3000002 3.5 -0.1 33488896 0 0 0 0
8.3999996 3.5 -0.1 33488896 0 0 0 0
8.5 3.5 -0.1 33488896 0 0 0 0
8.6000004 3.5 -0.1 33488896 0 0 0 0
8.6999998 3.5 -0.1 33488896 0 0 0 0
9.1999998 4.5999999 -0.2 33488896 0 0 0 0
8 3.6000001 -0.1 33488896 0 0 0 0
8.1000004 3.6000001 -0.1 33488896 0 0 0 0
8.1999998 3.6000001 -0.1 33488896 0 0 0 0
8.3000002 3.6000001 -0.1 33488896 0 0 0 0
8.3999996 3.6000001 -0.1 33488896 0 0 0 0
8.5 3.6000001 -0.1 33488896 0 0 0 0
8.6000004 3.6000001 -0.1 33488896 0 0 0 0
