# .PCD v0.7 - Point Cloud Data file format
VERSION 0.7
FIELDS x y z rgb normal_x normal_y normal_z curvature
SIZE 4 4 4 4 4 4 4 4
TYPE F F F U F F F F
COUNT 1 1 1 1 1 1 1 1
WIDTH 1166
HEIGHT 1
VIEWPOINT 0 0 0 1 0 0 0
POINTS 1166
DATA ascii
9 7.9000001 0.69999999 33488896 0 0 0 0
8 7.2000003 0.80000001 33488896 0 0 0 0
8.1000004 7.2000003 0.80000001 33488896 0 0 0 0
8.1999998 7.2000003 0.80000001 33488896 0 0 0 0
8.3000002 7.2000003 0.80000001 33488896 0 0 0 0
8.3999996 7.2000003 0.80000001 33488896 0 0 0 0
8.5 7.2000003 0.80000001 33488896 0 0 0 0
8.6000004 7.2000003 0.80000001 33488896 0 0 0 0
8.6999998 7.2000003 0.80000001 33488896 0 0 0 0
8 7.2000003 0.90000004 33488896 0 0 0 0
8.1000004 7.2000003 0.90000004 33488896 0 0 0 0
8.1999998 7.2000003 0.90000004 33488896 0 0 0 0
8.3000002 7.2000003 0.90000004 33488896 0 0 0 0
8.3999996 7.2000003 0.90000004 33488896 0 0 0 0
8.5 7.2000003 0.90000004 33488896 0 0 0 0
8.6000004 7.2000003 0.90000004 33488896 0 0 0 0
8.6999998 7.2000003 0.90000004 33488896 0 0 0 0
8.8000002 7.2000003 0.60000002 33488896 0 0 0 0
8.9000006 7.2000003 0.60000002 33488896 0 0 0 0
9 7.2000003 0.60000002 33488896 0 0 0 0
9.1000004 7.2000003 0.60000002 33488896 0 0 0 0
9.1999998 7.2000003 0.60000002 33488896 0 0 0 0
9.3000002 7.2000003 0.60000002 33488896 0 0 0 0
9.4000006 7.2000003 0.60000002 33488896 0 0 0 0
9.5 7.2000003 0.60000002 33488896 0 0 0 0
8.8000002 7.3000002 0.60000002 33488896 0 0 0 0
8.9000006 7.3000002 0.60000002 33488896 0 0 0 0
9 7.3000002 0.60000002 33488896 0 0 0 0
9.1000004 7.3000002 0.60000002 33488896 0 0 0 0
9.1999998 7.3000002 0.60000002 33488896 0 0 0 0
9.3000002 7.3000002 0.60000002 33488896 0 0 0 0
9.4000006 7.3000002 0.60000002 33488896 0 0 0 0
9.5 7.3000002 0.60000002 33488896 0 0 0 0
8.8000002 7.4000001 0.60000002 33488896 0 0 0 0
8.9000006 7.4000001 0.60000002 33488896 0 0 0 0
9 7.4000001 0.60000002 33488896 0 0 0 0
9.1000004 7.4000001 0.60000002 33488896 0 0 0 0
9.1999998 7.4000001 0.60000002 33488896 0 0 0 0
9.3000002 7.4000001 0.60000002 33488896 0 0 0 0
9.4000006 7.4000001 0.60000002 33488896 0 0 0 0
9.5 7.4000001 0.60000002 33488896 0 0 0 0
9.7000008 8.8000002 1 33488896 0 0 0 0
9.8000002 8.8000002 1 33488896 0 0 0 0
9.9000006 8.8000002 1 33488896 0 0 0 0
10 8.8000002 1 33488896 0 0 0 0
10.1 8.8000002 1 33488896 0 0 0 0
10.200001 8.8000002 1 33488896 0 0 0 0
10.3 8.8000002 1 33488896 0 0 0 0
9.7000008 8.9000006 1 33488896 0 0 0 0
9.8000002 8.9000006 1 33488896 0 0 0 0
9.9000006 8.9000006 1 33488896 0 0 0 0
10 8.9000006 1 33488896 0 0 0 0
10.1 8.9000006 1 33488896 0 0 0 0
10.200001 8.9000006 1 33488896 0 0 0 0
10.3 8.9000006 1 33488896 0 0 0 0
9.7000008 9 1 33488896 0 0 0 0
9.8000002 9 1 33488896 0 0 0 0
9.9000006 9 1 33488896 0 0 0 0
10 9 1 33488896 0 0 0 0
10.1 9 1 33488896 0 0 0 0
10.200001 9 1 33488896 0 0 0 0
10.3 9 1 33488896 0 0 0 0
9.7000008 9.1000004 1 33488896 0 0 0 0
9.8000002 9.1000004 1 33488896 0 0 0 0
9.9000006 9.1000004 1 33488896 0 0 0 0
10 9.1000004 1 33488896 0 0 0 0
10.1 9.1000004 1 33488896 0 0 0 0
10.200001 9.1000004 1 33488896 0 0 0 0
10.3 9.1000004 1 33488896 0 0 0 0
8.9000006 7 2.6000001 33488896 0 0 0 0
9 7 2.6000001 33488896 0 0 0 0
9.1999998 7 2.6000001 33488896 0 0 0 0
9.3000002 7 2.6000001 33488896 0 0 0 0
9.4000006 7 2.6000001 33488896 0 0 0 0
9.5 7 2.6000001 33488896 0 0 0 0
8.8000002 7.0999999 2.6000001 33488896 0 0 0 0
8.9000006 7.0999999 2.6000001 33488896 0 0 0 0
9 7.0999999 2.6000001 33488896 0 0 0 0
9.1000004 7.0999999 2.6000001 33488896 0 0 0 0
9.1999998 7.0999999 2.6000001 33488896 0 0 0 0
9.3000002 7.0999999 2.6000001 33488896 0 0 0 0
9.4000006 7.0999999 2.6000001 33488896 0 0 0 0
9.5 7.0999999 2.6000001 33488896 0 0 0 0
8.8000002 9.1999998 2.3 33488896 0 0 0 0
8.9000006 9.1999998 2.3 33488896 0 0 0 0
9 9.1999998 2.3 33488896 0 0 0 0
9.1000004 9.1999998 2.3 33488896 0 0 0 0
9.1999998 9.1999998 2.3 33488896 0 0 0 0
9.3000002 9.1999998 2.3 33488896 0 0 0 0
9.4000006 9.1999998 2.3 33488896 0 0 0 0
9.5 9.1999998 2.3 33488896 0 0 0 0
8.8000002 9.3000002 2.3 33488896 0 0 0 0
8.9000006 9.3000002 2.3 33488896 0 0 0 0
9 9.3000002 2.3 33488896 0 0 0 0
9.1000004 9.3000002 2.3 33488896 0 0 0 0
9.1999998 9.3000002 2.3 33488896 0 0 0 0
9.3000002 9.3000002 2.3 33488896 0 0 0 0
9.4000006 9.3000002 2.3 33488896 0 0 0 0
9.5 9.3000002 2.3 33488896 0 0 0 0
8.9000006 9.4000006 2.3 33488896 0 0 0 0
9 9.4000006 2.3 33488896 0 0 0 0
9.1000004 9.4000006 2.3 33488896 0 0 0 0
9.1999998 9.4000006 2.3 33488896 0 0 0 0
9.3000002 9.4000006 2.3 33488896 0 0 0 0
8.9000006 9.5 2.3 33488896 0 0 0 0
9 9.5 2.3 33488896 0 0 0 0
9.1000004 9.5 2.3 33488896 0 0 0 0
9.1999998 9.5 2.3 33488896 0 0 0 0
9.3000002 9.5 2.3 33488896 0 0 0 0
8.8000002 7 2.4000001 33488896 0 0 0 0
8.9000006 7 2.4000001 33488896 0 0 0 0
9 7 2.4000001 33488896 0 0 0 0
9.1999998 7 2.4000001 33488896 0 0 0 0
9.3000002 7 2.4000001 33488896 0 0 0 0
9.4000006 7 2.4000001 33488896 0 0 0 0
9.5 7 2.4000001 33488896 0 0 0 0
8.8000002 7.0999999 2.4000001 33488896 0 0 0 0
8.9000006 7.0999999 2.4000001 33488896 0 0 0 0
9 7.0999999 2.4000001 33488896 0 0 0 0
9.1000004 7.0999999 2.4000001 33488896 0 0 0 0
9.1999998 7.0999999 2.4000001 33488896 0 0 0 0
9.3000002 7.0999999 2.4000001 33488896 0 0 0 0
9.4000006 7.0999999 2.4000001 33488896 0 0 0 0
9.5 7.0999999 2.4000001 33488896 0 0 0 0
8.8000002 7.2000003 0.40000001 33488896 0 0 0 0
8.9000006 7.2000003 0.40000001 33488896 0 0 0 0
9 7.2000003 0.40000001 33488896 0 0 0 0
9.1000004 7.2000003 0.40000001 33488896 0 0 0 0
9.1999998 7.2000003 0.40000001 33488896 0 0 0 0
9.3000002 7.2000003 0.40000001 33488896 0 0 0 0
9.4000006 7.2000003 0.40000001 33488896 0 0 0 0
9.5 7.2000003 0.40000001 33488896 0 0 0 0
8.8000002 7.3000002 0.40000001 33488896 0 0 0 0
8.9000006 7.3000002 0.40000001 33488896 0 0 0 0
9 7.3000002 0.40000001 33488896 0 0 0 0
9.1000004 7.3000002 0.40000001 33488896 0 0 0 0
9.1999998 7.3000002 0.40000001 33488896 0 0 0 0
9.3000002 7.3000002 0.40000001 33488896 0 0 0 0
9.4000006 7.3000002 0.40000001 33488896 0 0 0 0
9.5 7.3000002 0.40000001 33488896 0 0 0 0
8.8000002 7.4000001 0.40000001 33488896 0 0 0 0
8.9000006 7.4000001 0.40000001 33488896 0 0 0 0
9 7.4000001 0.40000001 33488896 0 0 0 0
9.1000004 7.4000001 0.40000001 33488896 0 0 0 0
9.1999998 7.4000001 0.40000001 33488896 0 0 0 0
9.3000002 7.4000001 0.40000001 33488896 0 0 0 0
9.4000006 7.4000001 0.40000001 33488896 0 0 0 0
9.5 7.4000001 0.40000001 33488896 0 0 0 0
8.9000006 7.6000004 0.80000001 33488896 0 0 0 0
9 7.6000004 0.80000001 33488896 0 0 0 0
9.1000004 7.6000004 0.80000001 33488896 0 0 0 0
9.1999998 7.6000004 0.80000001 33488896 0 0 0 0
9.3000002 7.6000004 0.80000001 33488896 0 0 0 0
9.4000006 7.6000004 0.80000001 33488896 0 0 0 0
8.9000006 7.7000003 0.80000001 33488896 0 0 0 0
9 7.7000003 0.80000001 33488896 0 0 0 0
9.1000004 7.7000003 0.80000001 33488896 0 0 0 0
9.1999998 7.7000003 0.80000001 33488896 0 0 0 0
9.3000002 7.7000003 0.80000001 33488896 0 0 0 0
9.4000006 7.7000003 0.80000001 33488896 0 0 0 0
8.9000006 7.8000002 0.80000001 33488896 0 0 0 0
9 7.8000002 0.80000001 33488896 0 0 0 0
9.1000004 7.8000002 0.80000001 33488896 0 0 0 0
9.1999998 7.8000002 0.80000001 33488896 0 0 0 0
9.3000002 7.8000002 0.80000001 33488896 0 0 0 0
9.4000006 7.8000002 0.80000001 33488896 0 0 0 0
9.5 7.8000002 0.80000001 33488896 0 0 0 0
8.9000006 7.9000001 0.80000001 33488896 0 0 0 0
9 7.9000001 0.80000001 33488896 0 0 0 0
9.1000004 7.9000001 0.80000001 33488896 0 0 0 0
9.1999998 7.9000001 0.80000001 33488896 0 0 0 0
9.3000002 7.9000001 0.80000001 33488896 0 0 0 0
9.4000006 7.9000001 0.80000001 33488896 0 0 0 0
8.8000002 7.2000003 0.5 33488896 0 0 0 0
8.9000006 7.2000003 0.5 33488896 0 0 0 0
9 7.2000003 0.5 33488896 0 0 0 0
9.1000004 7.2000003 0.5 33488896 0 0 0 0
9.1999998 7.2000003 0.5 33488896 0 0 0 0
9.3000002 7.2000003 0.5 33488896 0 0 0 0
9.4000006 7.2000003 0.5 33488896 0 0 0 0
9.5 7.2000003 0.5 33488896 0 0 0 0
8.8000002 7.3000002 0.5 33488896 0 0 0 0
8.9000006 7.3000002 0.5 33488896 0 0 0 0
9 7.3000002 0.5 33488896 0 0 0 0
9.1000004 7.3000002 0.5 33488896 0 0 0 0
9.1999998 7.3000002 0.5 33488896 0 0 0 0
9.3000002 7.3000002 0.5 33488896 0 0 0 0
9.4000006 7.3000002 0.5 33488896 0 0 0 0
9.5 7.3000002 0.5 33488896 0 0 0 0
8.8000002 7.4000001 0.5 33488896 0 0 0 0
8.9000006 7.4000001 0.5 33488896 0 0 0 0
9 7.4000001 0.5 33488896 0 0 0 0
9.1000004 7.4000001 0.5 33488896 0 0 0 0
9.1999998 7.4000001 0.5 33488896 0 0 0 0
9.3000002 7.4000001 0.5 33488896 0 0 0 0
9.4000006 7.4000001 0.5 33488896 0 0 0 0
9.5 7.4000001 0.5 33488896 0 0 0 0
8.8000002 7.2000003 0.2 33488896 0 0 0 0
8.9000006 7.2000003 0.2 33488896 0 0 0 0
9 7.2000003 0.2 33488896 0 0 0 0
9.1000004 7.2000003 0.2 33488896 0 0 0 0
9.1999998 7.2000003 0.2 33488896 0 0 0 0
9.3000002 7.2000003 0.2 33488896 0 0 0 0
9.4000006 7.2000003 0.2 33488896 0 0 0 0
9.5 7.2000003 0.2 33488896 0 0 0 0
8.8000002 7.3000002 0.2 33488896 0 0 0 0
8.9000006 7.3000002 0.2 33488896 0 0 0 0
9 7.3000002 0.2 33488896 0 0 0 0
9.1000004 7.3000002 0.2 33488896 0 0 0 0
9.1999998 7.3000002 0.2 33488896 0 0 0 0
9.3000002 7.3000002 0.2 33488896 0 0 0 0
9.4000006 7.3000002 0.2 33488896 0 0 0 0
9.5 7.3000002 0.2 33488896 0 0 0 0
8.8000002 7.4000001 0.2 33488896 0 0 0 0
8.9000006 7.4000001 0.2 33488896 0 0 0 0
9 7.4000001 0.2 33488896 0 0 0 0
9.1000004 7.4000001 0.2 33488896 0 0 0 0
9.1999998 7.4000001 0.2 33488896 0 0 0 0
9.3000002 7.4000001 0.2 33488896 0 0 0 0
9.4000006 7.4000001 0.2 33488896 0 0 0 0
9.5 7.4000001 0.2 33488896 0 0 0 0
8 8.8000002 0.5 33488896 0 0 0 0
8.1000004 8.8000002 0.5 33488896 0 0 0 0
8.1999998 8.8000002 0.5 33488896 0 0 0 0
8.3000002 8.8000002 0.5 33488896 0 0 0 0
8.3999996 8.8000002 0.5 33488896 0 0 0 0
8.5 8.8000002 0.5 33488896 0 0 0 0
8.6000004 8.8000002 0.5 33488896 0 0 0 0
8.6999998 8.8000002 0.5 33488896 0 0 0 0
8 8.9000006 0.5 33488896 0 0 0 0
8.1000004 8.9000006 0.5 33488896 0 0 0 0
8.1999998 8.9000006 0.5 33488896 0 0 0 0
8.3000002 8.9000006 0.5 33488896 0 0 0 0
8.3999996 8.9000006 0.5 33488896 0 0 0 0
8.5 8.9000006 0.5 33488896 0 0 0 0
8.6000004 8.9000006 0.5 33488896 0 0 0 0
8.6999998 8.9000006 0.5 33488896 0 0 0 0
8 9 0.5 33488896 0 0 0 0
8.1000004 9 0.5 33488896 0 0 0 0
8.1999998 9 0.5 33488896 0 0 0 0
8.3000002 9 0.5 33488896 0 0 0 0
8.3999996 9 0.5 33488896 0 0 0 0
8.5 9 0.5 33488896 0 0 0 0
8.6000004 9 0.5 33488896 0 0 0 0
8 9.1000004 0.5 33488896 0 0 0 0
8.1000004 9.1000004 0.5 33488896 0 0 0 0
8.1999998 9.1000004 0.5 33488896 0 0 0 0
8.3000002 9.1000004 0.5 33488896 0 0 0 0
8.3999996 9.1000004 0.5 33488896 0 0 0 0
8.5 9.1000004 0.5 33488896 0 0 0 0
8.6000004 9.1000004 0.5 33488896 0 0 0 0
9.6000004 9.1999998 2.1000001 33488896 0 0 0 0
9.7000008 9.1999998 2.1000001 33488896 0 0 0 0
9.8000002 9.1999998 2.1000001 33488896 0 0 0 0
9.9000006 9.1999998 2.1000001 33488896 0 0 0 0
10 9.1999998 2.1000001 33488896 0 0 0 0
10.1 9.1999998 2.1000001 33488896 0 0 0 0
10.200001 9.1999998 2.1000001 33488896 0 0 0 0
10.3 9.1999998 2.1000001 33488896 0 0 0 0
9.6000004 9.3000002 2.1000001 33488896 0 0 0 0
9.7000008 9.3000002 2.1000001 33488896 0 0 0 0
9.8000002 9.3000002 2.1000001 33488896 0 0 0 0
9.9000006 9.3000002 2.1000001 33488896 0 0 0 0
10 9.3000002 2.1000001 33488896 0 0 0 0
10.1 9.3000002 2.1000001 33488896 0 0 0 0
10.200001 9.3000002 2.1000001 33488896 0 0 0 0
10.3 9.3000002 2.1000001 33488896 0 0 0 0
9.6000004 9.4000006 2.1000001 33488896 0 0 0 0
9.7000008 9.4000006 2.1000001 33488896 0 0 0 0
9.8000002 9.4000006 2.1000001 33488896 0 0 0 0
9.9000006 9.4000006 2.1000001 33488896 0 0 0 0
10 9.4000006 2.1000001 33488896 0 0 0 0
10.1 9.4000006 2.1000001 33488896 0 0 0 0
9.6000004 9.5 2.1000001 33488896 0 0 0 0
9.7000008 9.5 2.1000001 33488896 0 0 0 0
9.8000002 9.5 2.1000001 33488896 0 0 0 0
9.9000006 9.5 2.1000001 33488896 0 0 0 0
10 9.5 2.1000001 33488896 0 0 0 0
10.1 9.5 2.1000001 33488896 0 0 0 0
8.8000002 7.0999999 0.69999999 33488896 0 0 0 0
8.9000006 7.0999999 0.69999999 33488896 0 0 0 0
9 7.0999999 0.69999999 33488896 0 0 0 0
9.1000004 7.0999999 0.69999999 33488896 0 0 0 0
9.1999998 7.0999999 0.69999999 33488896 0 0 0 0
9.3000002 7.0999999 0.69999999 33488896 0 0 0 0
9.4000006 7.0999999 0.69999999 33488896 0 0 0 0
9.5 7.0999999 0.69999999 33488896 0 0 0 0
8.8000002 7.0999999 0.5 33488896 0 0 0 0
8.9000006 7.0999999 0.5 33488896 0 0 0 0
9 7.0999999 0.5 33488896 0 0 0 0
9.1000004 7.0999999 0.5 33488896 0 0 0 0
9.1999998 7.0999999 0.5 33488896 0 0 0 0
9.3000002 7.0999999 0.5 33488896 0 0 0 0
9.4000006 7.0999999 0.5 33488896 0 0 0 0
9.5 7.0999999 0.5 33488896 0 0 0 0
8.8000002 7.2000003 0.30000001 33488896 0 0 0 0
8.9000006 7.2000003 0.30000001 33488896 0 0 0 0
9 7.2000003 0.30000001 33488896 0 0 0 0
9.1000004 7.2000003 0.30000001 33488896 0 0 0 0
9.1999998 7.2000003 0.30000001 33488896 0 0 0 0
9.3000002 7.2000003 0.30000001 33488896 0 0 0 0
9.4000006 7.2000003 0.30000001 33488896 0 0 0 0
9.5 7.2000003 0.30000001 33488896 0 0 0 0
8.8000002 7.3000002 0.30000001 33488896 0 0 0 0
8.9000006 7.3000002 0.30000001 33488896 0 0 0 0
9 7.3000002 0.30000001 33488896 0 0 0 0
9.1000004 7.3000002 0.30000001 33488896 0 0 0 0
9.1999998 7.3000002 0.30000001 33488896 0 0 0 0
9.3000002 7.3000002 0.30000001 33488896 0 0 0 0
9.4000006 7.3000002 0.30000001 33488896 0 0 0 0
9.5 7.3000002 0.30000001 33488896 0 0 0 0
8.8000002 7.4000001 0.30000001 33488896 0 0 0 0
8.9000006 7.4000001 0.30000001 33488896 0 0 0 0
9 7.4000001 0.30000001 33488896 0 0 0 0
9.1000004 7.4000001 0.30000001 33488896 0 0 0 0
9.1999998 7.4000001 0.30000001 33488896 0 0 0 0
9.3000002 7.4000001 0.30000001 33488896 0 0 0 0
9.4000006 7.4000001 0.30000001 33488896 0 0 0 0
9.5 7.4000001 0.30000001 33488896 0 0 0 0
7.2000003 9.3000002 4.9000001 33488896 0 0 0 0
7.4000001 9.3000002 4.9000001 33488896 0 0 0 0
8.8000002 7.0999999 0.60000002 33488896 0 0 0 0
8.9000006 7.0999999 0.60000002 33488896 0 0 0 0
9 7.0999999 0.60000002 33488896 0 0 0 0
9.1000004 7.0999999 0.60000002 33488896 0 0 0 0
9.1999998 7.0999999 0.60000002 33488896 0 0 0 0
9.3000002 7.0999999 0.60000002 33488896 0 0 0 0
9.4000006 7.0999999 0.60000002 33488896 0 0 0 0
9.5 7.0999999 0.60000002 33488896 0 0 0 0
8.8000002 7.0999999 0.40000001 33488896 0 0 0 0
8.9000006 7.0999999 0.40000001 33488896 0 0 0 0
9 7.0999999 0.40000001 33488896 0 0 0 0
9.1000004 7.0999999 0.40000001 33488896 0 0 0 0
9.1999998 7.0999999 0.40000001 33488896 0 0 0 0
9.3000002 7.0999999 0.40000001 33488896 0 0 0 0
9.4000006 7.0999999 0.40000001 33488896 0 0 0 0
9.5 7.0999999 0.40000001 33488896 0 0 0 0
8.8000002 7.2000003 0.1 33488896 0 0 0 0
8.9000006 7.2000003 0.1 33488896 0 0 0 0
9 7.2000003 0.1 33488896 0 0 0 0
9.1000004 7.2000003 0.1 33488896 0 0 0 0
9.1999998 7.2000003 0.1 33488896 0 0 0 0
9.3000002 7.2000003 0.1 33488896 0 0 0 0
9.4000006 7.2000003 0.1 33488896 0 0 0 0
9.5 7.2000003 0.1 33488896 0 0 0 0
8.8000002 7.3000002 0.1 33488896 0 0 0 0
8.9000006 7.3000002 0.1 33488896 0 0 0 0
9 7.3000002 0.1 33488896 0 0 0 0
9.1000004 7.3000002 0.1 33488896 0 0 0 0
9.1999998 7.3000002 0.1 33488896 0 0 0 0
9.3000002 7.3000002 0.1 33488896 0 0 0 0
9.4000006 7.3000002 0.1 33488896 0 0 0 0
9.5 7.3000002 0.1 33488896 0 0 0 0
8.8000002 7.4000001 0.1 33488896 0 0 0 0
8.9000006 7.4000001 0.1 33488896 0 0 0 0
9 7.4000001 0.1 33488896 0 0 0 0
9.1000004 7.4000001 0.1 33488896 0 0 0 0
9.1999998 7.4000001 0.1 33488896 0 0 0 0
9.3000002 7.4000001 0.1 33488896 0 0 0 0
9.4000006 7.4000001 0.1 33488896 0 0 0 0
9.5 7.4000001 0.1 33488896 0 0 0 0
8.8000002 7.0999999 0.30000001 33488896 0 0 0 0
8.9000006 7.0999999 0.30000001 33488896 0 0 0 0
9 7.0999999 0.30000001 33488896 0 0 0 0
9.1000004 7.0999999 0.30000001 33488896 0 0 0 0
9.1999998 7.0999999 0.30000001 33488896 0 0 0 0
9.3000002 7.0999999 0.30000001 33488896 0 0 0 0
9.4000006 7.0999999 0.30000001 33488896 0 0 0 0
9.5 7.0999999 0.30000001 33488896 0 0 0 0
8.8000002 7.0999999 0.2 33488896 0 0 0 0
8.9000006 7.0999999 0.2 33488896 0 0 0 0
9 7.0999999 0.2 33488896 0 0 0 0
9.1000004 7.0999999 0.2 33488896 0 0 0 0
9.1999998 7.0999999 0.2 33488896 0 0 0 0
9.3000002 7.0999999 0.2 33488896 0 0 0 0
9.4000006 7.0999999 0.2 33488896 0 0 0 0
9.5 7.0999999 0.2 33488896 0 0 0 0
8.8000002 7.0999999 0 33488896 0 0 0 0
8.9000006 7.0999999 0 33488896 0 0 0 0
9 7.0999999 0 33488896 0 0 0 0
9.1000004 7.0999999 0 33488896 0 0 0 0
9.1999998 7.0999999 0 33488896 0 0 0 0
9.3000002 7.0999999 0 33488896 0 0 0 0
9.4000006 7.0999999 0 33488896 0 0 0 0
9.5 7.0999999 0 33488896 0 0 0 0
8 7 0.60000002 33488896 0 0 0 0
8.1000004 7 0.60000002 33488896 0 0 0 0
8 7.0999999 0.60000002 33488896 0 0 0 0
8.1000004 7.0999999 0.60000002 33488896 0 0 0 0
8.1999998 7.0999999 0.60000002 33488896 0 0 0 0
8.3000002 7.0999999 0.60000002 33488896 0 0 0 0
8.3999996 7.0999999 0.60000002 33488896 0 0 0 0
8.5 7.0999999 0.60000002 33488896 0 0 0 0
8.6000004 7.0999999 0.60000002 33488896 0 0 0 0
8.6999998 7.0999999 0.60000002 33488896 0 0 0 0
8.8000002 7.0999999 0.1 33488896 0 0 0 0
8.9000006 7.0999999 0.1 33488896 0 0 0 0
9 7.0999999 0.1 33488896 0 0 0 0
9.1000004 7.0999999 0.1 33488896 0 0 0 0
9.1999998 7.0999999 0.1 33488896 0 0 0 0
9.3000002 7.0999999 0.1 33488896 0 0 0 0
9.4000006 7.0999999 0.1 33488896 0 0 0 0
9.5 7.0999999 0.1 33488896 0 0 0 0
8 7 0.69999999 33488896 0 0 0 0
8.1000004 7 0.69999999 33488896 0 0 0 0
8.1999998 7 0.69999999 33488896 0 0 0 0
8.3000002 7 0.69999999 33488896 0 0 0 0
8.3999996 7 0.69999999 33488896 0 0 0 0
8.5 7 0.69999999 33488896 0 0 0 0
8.6000004 7 0.69999999 33488896 0 0 0 0
8.6999998 7 0.69999999 33488896 0 0 0 0
8 7.0999999 0.69999999 33488896 0 0 0 0
8.1000004 7.0999999 0.69999999 33488896 0 0 0 0
8.1999998 7.0999999 0.69999999 33488896 0 0 0 0
8.3000002 7.0999999 0.69999999 33488896 0 0 0 0
8.3999996 7.0999999 0.69999999 33488896 0 0 0 0
8.5 7.0999999 0.69999999 33488896 0 0 0 0
8.6000004 7.0999999 0.69999999 33488896 0 0 0 0
8.6999998 7.0999999 0.69999999 33488896 0 0 0 0
8.8000002 7 2.2 33488896 0 0 0 0
8.9000006 7 2.2 33488896 0 0 0 0
9 7 2.2 33488896 0 0 0 0
9.1000004 7 2.2 33488896 0 0 0 0
9.1999998 7 2.2 33488896 0 0 0 0
9.3000002 7 2.2 33488896 0 0 0 0
9.5 7 2.2 33488896 0 0 0 0
8.8000002 7.0999999 2.2 33488896 0 0 0 0
8.9000006 7.0999999 2.2 33488896 0 0 0 0
9 7.0999999 2.2 33488896 0 0 0 0
9.1000004 7.0999999 2.2 33488896 0 0 0 0
9.1999998 7.0999999 2.2 33488896 0 0 0 0
9.3000002 7.0999999 2.2 33488896 0 0 0 0
9.4000006 7.0999999 2.2 33488896 0 0 0 0
9.5 7.0999999 2.2 33488896 0 0 0 0
8 7.0999999 0.40000001 33488896 0 0 0 0
8.1000004 7.0999999 0.40000001 33488896 0 0 0 0
8.1999998 7.0999999 0.40000001 33488896 0 0 0 0
8.3000002 7.0999999 0.40000001 33488896 0 0 0 0
8.3999996 7.0999999 0.40000001 33488896 0 0 0 0
8.5 7.0999999 0.40000001 33488896 0 0 0 0
8.6000004 7.0999999 0.40000001 33488896 0 0 0 0
8.6999998 7.0999999 0.40000001 33488896 0 0 0 0
8 7.0999999 0.5 33488896 0 0 0 0
8.1000004 7.0999999 0.5 33488896 0 0 0 0
8.1999998 7.0999999 0.5 33488896 0 0 0 0
8.3000002 7.0999999 0.5 33488896 0 0 0 0
8.3999996 7.0999999 0.5 33488896 0 0 0 0
8.5 7.0999999 0.5 33488896 0 0 0 0
8.6000004 7.0999999 0.5 33488896 0 0 0 0
8.6999998 7.0999999 0.5 33488896 0 0 0 0
8 7.2000003 0.40000001 33488896 0 0 0 0
8.1000004 7.2000003 0.40000001 33488896 0 0 0 0
8.1999998 7.2000003 0.40000001 33488896 0 0 0 0
8.3000002 7.2000003 0.40000001 33488896 0 0 0 0
8.3999996 7.2000003 0.40000001 33488896 0 0 0 0
8.5 7.2000003 0.40000001 33488896 0 0 0 0
8.6000004 7.2000003 0.40000001 33488896 0 0 0 0
8.6999998 7.2000003 0.40000001 33488896 0 0 0 0
8 7.3000002 0.40000001 33488896 0 0 0 0
8.1000004 7.3000002 0.40000001 33488896 0 0 0 0
8.1999998 7.3000002 0.40000001 33488896 0 0 0 0
8.3000002 7.3000002 0.40000001 33488896 0 0 0 0
8.3999996 7.3000002 0.40000001 33488896 0 0 0 0
8.5 7.3000002 0.40000001 33488896 0 0 0 0
8.6000004 7.3000002 0.40000001 33488896 0 0 0 0
8.6999998 7.3000002 0.40000001 33488896 0 0 0 0
8 7.4000001 0.40000001 33488896 0 0 0 0
8.1000004 7.4000001 0.40000001 33488896 0 0 0 0
8.1999998 7.4000001 0.40000001 33488896 0 0 0 0
8.3000002 7.4000001 0.40000001 33488896 0 0 0 0
8.3999996 7.4000001 0.40000001 33488896 0 0 0 0
8.5 7.4000001 0.40000001 33488896 0 0 0 0
8.6000004 7.4000001 0.40000001 33488896 0 0 0 0
8.6999998 7.4000001 0.40000001 33488896 0 0 0 0
8 7.5000005 0.40000001 33488896 0 0 0 0
8.1000004 7.5000005 0.40000001 33488896 0 0 0 0
8.8000002 7 2.3 33488896 0 0 0 0
8.9000006 7 2.3 33488896 0 0 0 0
9 7 2.3 33488896 0 0 0 0
9.1999998 7 2.3 33488896 0 0 0 0
9.3000002 7 2.3 33488896 0 0 0 0
9.5 7 2.3 33488896 0 0 0 0
8.8000002 7.0999999 2.3 33488896 0 0 0 0
8.9000006 7.0999999 2.3 33488896 0 0 0 0
9 7.0999999 2.3 33488896 0 0 0 0
9.1000004 7.0999999 2.3 33488896 0 0 0 0
9.1999998 7.0999999 2.3 33488896 0 0 0 0
9.3000002 7.0999999 2.3 33488896 0 0 0 0
9.4000006 7.0999999 2.3 33488896 0 0 0 0
9.5 7.0999999 2.3 33488896 0 0 0 0
8 7 0.80000001 33488896 0 0 0 0
8.1000004 7 0.80000001 33488896 0 0 0 0
8.1999998 7 0.80000001 33488896 0 0 0 0
8.3000002 7 0.80000001 33488896 0 0 0 0
8.3999996 7 0.80000001 33488896 0 0 0 0
8.5 7 0.80000001 33488896 0 0 0 0
8.6000004 7 0.80000001 33488896 0 0 0 0
8.6999998 7 0.80000001 33488896 0 0 0 0
8 7.0999999 0.80000001 33488896 0 0 0 0
8.1000004 7.0999999 0.80000001 33488896 0 0 0 0
8.1999998 7.0999999 0.80000001 33488896 0 0 0 0
8.3000002 7.0999999 0.80000001 33488896 0 0 0 0
8.3999996 7.0999999 0.80000001 33488896 0 0 0 0
8.5 7.0999999 0.80000001 33488896 0 0 0 0
8.6000004 7.0999999 0.80000001 33488896 0 0 0 0
8.6999998 7.0999999 0.80000001 33488896 0 0 0 0
8 6.9000001 1.4 33488896 0 0 0 0
8.1000004 6.9000001 1.4 33488896 0 0 0 0
8.1999998 6.9000001 1.4 33488896 0 0 0 0
8.3000002 6.9000001 1.4 33488896 0 0 0 0
8.6000004 6.9000001 1.4 33488896 0 0 0 0
8 7 1.4 33488896 0 0 0 0
8.1000004 7 1.4 33488896 0 0 0 0
8.1999998 7 1.4 33488896 0 0 0 0
8.3000002 7 1.4 33488896 0 0 0 0
8.3999996 7 1.4 33488896 0 0 0 0
8.5 7 1.4 33488896 0 0 0 0
8.6000004 7 1.4 33488896 0 0 0 0
8.6999998 7 1.4 33488896 0 0 0 0
8 7.0999999 1.4 33488896 0 0 0 0
8.1000004 7.0999999 1.4 33488896 0 0 0 0
8.1999998 7.0999999 1.4 33488896 0 0 0 0
8.3000002 7.0999999 1.4 33488896 0 0 0 0
8.3999996 7.0999999 1.4 33488896 0 0 0 0
8.5 7.0999999 1.4 33488896 0 0 0 0
8.6000004 7.0999999 1.4 33488896 0 0 0 0
8.6999998 7.0999999 1.4 33488896 0 0 0 0
8.8000002 7 2 33488896 0 0 0 0
8.9000006 7 2 33488896 0 0 0 0
9 7 2 33488896 0 0 0 0
9.1000004 7 2 33488896 0 0 0 0
9.1999998 7 2 33488896 0 0 0 0
9.3000002 7 2 33488896 0 0 0 0
9.4000006 7 2 33488896 0 0 0 0
9.5 7 2 33488896 0 0 0 0
8.8000002 7.0999999 2 33488896 0 0 0 0
8.9000006 7.0999999 2 33488896 0 0 0 0
9 7.0999999 2 33488896 0 0 0 0
9.1000004 7.0999999 2 33488896 0 0 0 0
9.1999998 7.0999999 2 33488896 0 0 0 0
9.3000002 7.0999999 2 33488896 0 0 0 0
9.4000006 7.0999999 2 33488896 0 0 0 0
9.5 7.0999999 2 33488896 0 0 0 0
8 6.9000001 1.5 33488896 0 0 0 0
8.1000004 6.9000001 1.5 33488896 0 0 0 0
8.1999998 6.9000001 1.5 33488896 0 0 0 0
8.3000002 6.9000001 1.5 33488896 0 0 0 0
8 7 1.5 33488896 0 0 0 0
8.1000004 7 1.5 33488896 0 0 0 0
8.1999998 7 1.5 33488896 0 0 0 0
8.3000002 7 1.5 33488896 0 0 0 0
8.3999996 7 1.5 33488896 0 0 0 0
8.5 7 1.5 33488896 0 0 0 0
8.6000004 7 1.5 33488896 0 0 0 0
8.6999998 7 1.5 33488896 0 0 0 0
8 7.0999999 1.5 33488896 0 0 0 0
8.1000004 7.0999999 1.5 33488896 0 0 0 0
8.1999998 7.0999999 1.5 33488896 0 0 0 0
8.3000002 7.0999999 1.5 33488896 0 0 0 0
8.3999996 7.0999999 1.5 33488896 0 0 0 0
8.5 7.0999999 1.5 33488896 0 0 0 0
8.6000004 7.0999999 1.5 33488896 0 0 0 0
8.6999998 7.0999999 1.5 33488896 0 0 0 0
8 7.2000003 0.5 33488896 0 0 0 0
8.1000004 7.2000003 0.5 33488896 0 0 0 0
8.1999998 7.2000003 0.5 33488896 0 0 0 0
8.3000002 7.2000003 0.5 33488896 0 0 0 0
8.3999996 7.2000003 0.5 33488896 0 0 0 0
8.5 7.2000003 0.5 33488896 0 0 0 0
8.6000004 7.2000003 0.5 33488896 0 0 0 0
8.6999998 7.2000003 0.5 33488896 0 0 0 0
8 7.3000002 0.5 33488896 0 0 0 0
8.1000004 7.3000002 0.5 33488896 0 0 0 0
8.1999998 7.3000002 0.5 33488896 0 0 0 0
8.3000002 7.3000002 0.5 33488896 0 0 0 0
8.3999996 7.3000002 0.5 33488896 0 0 0 0
8.5 7.3000002 0.5 33488896 0 0 0 0
8.6000004 7.3000002 0.5 33488896 0 0 0 0
8.6999998 7.3000002 0.5 33488896 0 0 0 0
8 7.4000001 0.5 33488896 0 0 0 0
8.1000004 7.4000001 0.5 33488896 0 0 0 0
8.1999998 7.4000001 0.5 33488896 0 0 0 0
8.3000002 7.4000001 0.5 33488896 0 0 0 0
8.3999996 7.4000001 0.5 33488896 0 0 0 0
8.5 7.4000001 0.5 33488896 0 0 0 0
8.6000004 7.4000001 0.5 33488896 0 0 0 0
8.6999998 7.4000001 0.5 33488896 0 0 0 0
8 7.5000005 0.5 33488896 0 0 0 0
8.1000004 7.5000005 0.5 33488896 0 0 0 0
8.1999998 7.5000005 0.5 33488896 0 0 0 0
8.3000002 7.5000005 0.5 33488896 0 0 0 0
8.3999996 7.5000005 0.5 33488896 0 0 0 0
8.1999998 8.8000002 0.60000002 33488896 0 0 0 0
8.3000002 8.8000002 0.60000002 33488896 0 0 0 0
8.3999996 8.8000002 0.60000002 33488896 0 0 0 0
8.5 8.8000002 0.60000002 33488896 0 0 0 0
8.6000004 8.8000002 0.60000002 33488896 0 0 0 0
8.6999998 8.8000002 0.60000002 33488896 0 0 0 0
8.1999998 8.9000006 0.60000002 33488896 0 0 0 0
8.3000002 8.9000006 0.60000002 33488896 0 0 0 0
8.3999996 8.9000006 0.60000002 33488896 0 0 0 0
8.5 8.9000006 0.60000002 33488896 0 0 0 0
8.6000004 8.9000006 0.60000002 33488896 0 0 0 0
8.6999998 8.9000006 0.60000002 33488896 0 0 0 0
8.1999998 9 0.60000002 33488896 0 0 0 0
8.3000002 9 0.60000002 33488896 0 0 0 0
8.3999996 9 0.60000002 33488896 0 0 0 0
8.5 9 0.60000002 33488896 0 0 0 0
8.6000004 9 0.60000002 33488896 0 0 0 0
8.6999998 9 0.60000002 33488896 0 0 0 0
8.1999998 9.1000004 0.60000002 33488896 0 0 0 0
8.3000002 9.1000004 0.60000002 33488896 0 0 0 0
8.3999996 9.1000004 0.60000002 33488896 0 0 0 0
8.5 9.1000004 0.60000002 33488896 0 0 0 0
8.6000004 9.1000004 0.60000002 33488896 0 0 0 0
8.6999998 9.1000004 0.60000002 33488896 0 0 0 0
8.8000002 7 2.1000001 33488896 0 0 0 0
8.9000006 7 2.1000001 33488896 0 0 0 0
9 7 2.1000001 33488896 0 0 0 0
9.1000004 7 2.1000001 33488896 0 0 0 0
9.1999998 7 2.1000001 33488896 0 0 0 0
9.3000002 7 2.1000001 33488896 0 0 0 0
9.4000006 7 2.1000001 33488896 0 0 0 0
9.5 7 2.1000001 33488896 0 0 0 0
8.8000002 7.0999999 2.1000001 33488896 0 0 0 0
8.9000006 7.0999999 2.1000001 33488896 0 0 0 0
9 7.0999999 2.1000001 33488896 0 0 0 0
9.1000004 7.0999999 2.1000001 33488896 0 0 0 0
9.1999998 7.0999999 2.1000001 33488896 0 0 0 0
9.3000002 7.0999999 2.1000001 33488896 0 0 0 0
9.4000006 7.0999999 2.1000001 33488896 0 0 0 0
9.5 7.0999999 2.1000001 33488896 0 0 0 0
8 7.2000003 0.69999999 33488896 0 0 0 0
8.1000004 7.2000003 0.69999999 33488896 0 0 0 0
8.1999998 7.2000003 0.69999999 33488896 0 0 0 0
8.3000002 7.2000003 0.69999999 33488896 0 0 0 0
8.3999996 7.2000003 0.69999999 33488896 0 0 0 0
8.5 7.2000003 0.69999999 33488896 0 0 0 0
8.6000004 7.2000003 0.69999999 33488896 0 0 0 0
8.6999998 7.2000003 0.69999999 33488896 0 0 0 0
8.5 7.3000002 0.69999999 33488896 0 0 0 0
8.6000004 7.3000002 0.69999999 33488896 0 0 0 0
8.6999998 7.3000002 0.69999999 33488896 0 0 0 0
8.5 7.4000001 0.69999999 33488896 0 0 0 0
8.6000004 7.4000001 0.69999999 33488896 0 0 0 0
8.6999998 7.4000001 0.69999999 33488896 0 0 0 0
8.6000004 7.5000005 0.69999999 33488896 0 0 0 0
8.6999998 7.5000005 0.69999999 33488896 0 0 0 0
8 6.9000001 1.2 33488896 0 0 0 0
8.1000004 6.9000001 1.2 33488896 0 0 0 0
8.1999998 6.9000001 1.2 33488896 0 0 0 0
8.3000002 6.9000001 1.2 33488896 0 0 0 0
8.3999996 6.9000001 1.2 33488896 0 0 0 0
8.5 6.9000001 1.2 33488896 0 0 0 0
8.6000004 6.9000001 1.2 33488896 0 0 0 0
8 7 1.2 33488896 0 0 0 0
8.1000004 7 1.2 33488896 0 0 0 0
8.1999998 7 1.2 33488896 0 0 0 0
8.3000002 7 1.2 33488896 0 0 0 0
8.3999996 7 1.2 33488896 0 0 0 0
8.5 7 1.2 33488896 0 0 0 0
8.6000004 7 1.2 33488896 0 0 0 0
8.6999998 7 1.2 33488896 0 0 0 0
8 7.0999999 1.2 33488896 0 0 0 0
8.1000004 7.0999999 1.2 33488896 0 0 0 0
8.1999998 7.0999999 1.2 33488896 0 0 0 0
8.3000002 7.0999999 1.2 33488896 0 0 0 0
8.3999996 7.0999999 1.2 33488896 0 0 0 0
8.5 7.0999999 1.2 33488896 0 0 0 0
8.6000004 7.0999999 1.2 33488896 0 0 0 0
8.6999998 7.0999999 1.2 33488896 0 0 0 0
8 6.9000001 1.3000001 33488896 0 0 0 0
8.1000004 6.9000001 1.3000001 33488896 0 0 0 0
8.1999998 6.9000001 1.3000001 33488896 0 0 0 0
8.3000002 6.9000001 1.3000001 33488896 0 0 0 0
8.3999996 6.9000001 1.3000001 33488896 0 0 0 0
8.5 6.9000001 1.3000001 33488896 0 0 0 0
8 7 1.3000001 33488896 0 0 0 0
8.1000004 7 1.3000001 33488896 0 0 0 0
8.1999998 7 1.3000001 33488896 0 0 0 0
8.3000002 7 1.3000001 33488896 0 0 0 0
8.3999996 7 1.3000001 33488896 0 0 0 0
8.5 7 1.3000001 33488896 0 0 0 0
8.6000004 7 1.3000001 33488896 0 0 0 0
8.6999998 7 1.3000001 33488896 0 0 0 0
8 7.0999999 1.3000001 33488896 0 0 0 0
8.1000004 7.0999999 1.3000001 33488896 0 0 0 0
8.1999998 7.0999999 1.3000001 33488896 0 0 0 0
8.3000002 7.0999999 1.3000001 33488896 0 0 0 0
8.3999996 7.0999999 1.3000001 33488896 0 0 0 0
8.5 7.0999999 1.3000001 33488896 0 0 0 0
8.6000004 7.0999999 1.3000001 33488896 0 0 0 0
8.6999998 7.0999999 1.3000001 33488896 0 0 0 0
8 7.2000003 0.2 33488896 0 0 0 0
8.1000004 7.2000003 0.2 33488896 0 0 0 0
8.1999998 7.2000003 0.2 33488896 0 0 0 0
8.3000002 7.2000003 0.2 33488896 0 0 0 0
8.3999996 7.2000003 0.2 33488896 0 0 0 0
8.5 7.2000003 0.2 33488896 0 0 0 0
8.6000004 7.2000003 0.2 33488896 0 0 0 0
8.6999998 7.2000003 0.2 33488896 0 0 0 0
8 7.3000002 0.2 33488896 0 0 0 0
8.1000004 7.3000002 0.2 33488896 0 0 0 0
8.1999998 7.3000002 0.2 33488896 0 0 0 0
8.3000002 7.3000002 0.2 33488896 0 0 0 0
8.3999996 7.3000002 0.2 33488896 0 0 0 0
8.5 7.3000002 0.2 33488896 0 0 0 0
8.6000004 7.3000002 0.2 33488896 0 0 0 0
8.6999998 7.3000002 0.2 33488896 0 0 0 0
8 7.4000001 0.2 33488896 0 0 0 0
8.1000004 7.4000001 0.2 33488896 0 0 0 0
8.1999998 7.4000001 0.2 33488896 0 0 0 0
8.3000002 7.4000001 0.2 33488896 0 0 0 0
8.3999996 7.4000001 0.2 33488896 0 0 0 0
8.5 7.4000001 0.2 33488896 0 0 0 0
8.6000004 7.4000001 0.2 33488896 0 0 0 0
8.6999998 7.4000001 0.2 33488896 0 0 0 0
8 7.2000003 0 33488896 0 0 0 0
8.1000004 7.2000003 0 33488896 0 0 0 0
8.1999998 7.2000003 0 33488896 0 0 0 0
8.3000002 7.2000003 0 33488896 0 0 0 0
8.3999996 7.2000003 0 33488896 0 0 0 0
8.5 7.2000003 0 33488896 0 0 0 0
8.6000004 7.2000003 0 33488896 0 0 0 0
8.6999998 7.2000003 0 33488896 0 0 0 0
8 7.3000002 0 33488896 0 0 0 0
8.1000004 7.3000002 0 33488896 0 0 0 0
8.1999998 7.3000002 0 33488896 0 0 0 0
8.3000002 7.3000002 0 33488896 0 0 0 0
8.3999996 7.3000002 0 33488896 0 0 0 0
8.5 7.3000002 0 33488896 0 0 0 0
8.6000004 7.3000002 0 33488896 0 0 0 0
8.6999998 7.3000002 0 33488896 0 0 0 0
8 7.4000001 0 33488896 0 0 0 0
8.1000004 7.4000001 0 33488896 0 0 0 0
8.1999998 7.4000001 0 33488896 0 0 0 0
8.3000002 7.4000001 0 33488896 0 0 0 0
8.3999996 7.4000001 0 33488896 0 0 0 0
8.5 7.4000001 0 33488896 0 0 0 0
8.6000004 7.4000001 0 33488896 0 0 0 0
8.6999998 7.4000001 0 33488896 0 0 0 0
8 7.0999999 3 33488896 0 0 0 0
8.1000004 7.0999999 3 33488896 0 0 0 0
8.1999998 7.0999999 3 33488896 0 0 0 0
8.3000002 7.0999999 3 33488896 0 0 0 0
8.3999996 7.0999999 3 33488896 0 0 0 0
8.5 7.0999999 3 33488896 0 0 0 0
8.6000004 7.0999999 3 33488896 0 0 0 0
8.6999998 7.0999999 3 33488896 0 0 0 0
8 7.0999999 0.2 33488896 0 0 0 0
8.1000004 7.0999999 0.2 33488896 0 0 0 0
8.1999998 7.0999999 0.2 33488896 0 0 0 0
8.3000002 7.0999999 0.2 33488896 0 0 0 0
8.3999996 7.0999999 0.2 33488896 0 0 0 0
8.5 7.0999999 0.2 33488896 0 0 0 0
8.6000004 7.0999999 0.2 33488896 0 0 0 0
8.6999998 7.0999999 0.2 33488896 0 0 0 0
8 7.0999999 3.1000001 33488896 0 0 0 0
8.1000004 7.0999999 3.1000001 33488896 0 0 0 0
8.1999998 7.0999999 3.1000001 33488896 0 0 0 0
8.3000002 7.0999999 3.1000001 33488896 0 0 0 0
8.3999996 7.0999999 3.1000001 33488896 0 0 0 0
8.5 7.0999999 3.1000001 33488896 0 0 0 0
8.6000004 7.0999999 3.1000001 33488896 0 0 0 0
8.6999998 7.0999999 3.1000001 33488896 0 0 0 0
8 7.2000003 0.1 33488896 0 0 0 0
8.1000004 7.2000003 0.1 33488896 0 0 0 0
8.1999998 7.2000003 0.1 33488896 0 0 0 0
8.3000002 7.2000003 0.1 33488896 0 0 0 0
8.3999996 7.2000003 0.1 33488896 0 0 0 0
8.5 7.2000003 0.1 33488896 0 0 0 0
8.6000004 7.2000003 0.1 33488896 0 0 0 0
8.6999998 7.2000003 0.1 33488896 0 0 0 0
8 7.3000002 0.1 33488896 0 0 0 0
8.1000004 7.3000002 0.1 33488896 0 0 0 0
8.1999998 7.3000002 0.1 33488896 0 0 0 0
8.3000002 7.3000002 0.1 33488896 0 0 0 0
8.3999996 7.3000002 0.1 33488896 0 0 0 0
8.5 7.3000002 0.1 33488896 0 0 0 0
8.6000004 7.3000002 0.1 33488896 0 0 0 0
8.6999998 7.3000002 0.1 33488896 0 0 0 0
8 7.4000001 0.1 33488896 0 0 0 0
8.1000004 7.4000001 0.1 33488896 0 0 0 0
8.1999998 7.4000001 0.1 33488896 0 0 0 0
8.3000002 7.4000001 0.1 33488896 0 0 0 0
8.3999996 7.4000001 0.1 33488896 0 0 0 0
8.5 7.4000001 0.1 33488896 0 0 0 0
8.6000004 7.4000001 0.1 33488896 0 0 0 0
8.6999998 7.4000001 0.1 33488896 0 0 0 0
8 7.6000004 0.40000001 33488896 0 0 0 0
8.1999998 7.6000004 0.40000001 33488896 0 0 0 0
8 7.7000003 0.40000001 33488896 0 0 0 0
8.1000004 7.7000003 0.40000001 33488896 0 0 0 0
8.3000002 7.7000003 0.40000001 33488896 0 0 0 0
8 7.8000002 0.40000001 33488896 0 0 0 0
8.1000004 7.8000002 0.40000001 33488896 0 0 0 0
8 7.9000001 0.40000001 33488896 0 0 0 0
8.1000004 7.9000001 0.40000001 33488896 0 0 0 0
8 7.0999999 2.8000002 33488896 0 0 0 0
8.1000004 7.0999999 2.8000002 33488896 0 0 0 0
8.1999998 7.0999999 2.8000002 33488896 0 0 0 0
8.3000002 7.0999999 2.8000002 33488896 0 0 0 0
8.3999996 7.0999999 2.8000002 33488896 0 0 0 0
8.5 7.0999999 2.8000002 33488896 0 0 0 0
8.6000004 7.0999999 2.8000002 33488896 0 0 0 0
8.6999998 7.0999999 2.8000002 33488896 0 0 0 0
8 6.9000001 1 33488896 0 0 0 0
8.1000004 6.9000001 1 33488896 0 0 0 0
8.1999998 6.9000001 1 33488896 0 0 0 0
8.3000002 6.9000001 1 33488896 0 0 0 0
8.3999996 6.9000001 1 33488896 0 0 0 0
8 7 1 33488896 0 0 0 0
8.1000004 7 1 33488896 0 0 0 0
8.1999998 7 1 33488896 0 0 0 0
8.3000002 7 1 33488896 0 0 0 0
8.3999996 7 1 33488896 0 0 0 0
8.5 7 1 33488896 0 0 0 0
8.6000004 7 1 33488896 0 0 0 0
8.6999998 7 1 33488896 0 0 0 0
8 7.0999999 1 33488896 0 0 0 0
8.1000004 7.0999999 1 33488896 0 0 0 0
8.1999998 7.0999999 1 33488896 0 0 0 0
8.3000002 7.0999999 1 33488896 0 0 0 0
8.3999996 7.0999999 1 33488896 0 0 0 0
8.5 7.0999999 1 33488896 0 0 0 0
8.6000004 7.0999999 1 33488896 0 0 0 0
8.6999998 7.0999999 1 33488896 0 0 0 0
8 7.0999999 0.30000001 33488896 0 0 0 0
8.1000004 7.0999999 0.30000001 33488896 0 0 0 0
8.1999998 7.0999999 0.30000001 33488896 0 0 0 0
8.3000002 7.0999999 0.30000001 33488896 0 0 0 0
8.3999996 7.0999999 0.30000001 33488896 0 0 0 0
8.5 7.0999999 0.30000001 33488896 0 0 0 0
8.6000004 7.0999999 0.30000001 33488896 0 0 0 0
8.6999998 7.0999999 0.30000001 33488896 0 0 0 0
8 6.9000001 1.1 33488896 0 0 0 0
8.1000004 6.9000001 1.1 33488896 0 0 0 0
8.1999998 6.9000001 1.1 33488896 0 0 0 0
8.3000002 6.9000001 1.1 33488896 0 0 0 0
8.3999996 6.9000001 1.1 33488896 0 0 0 0
8 7 1.1 33488896 0 0 0 0
8.1000004 7 1.1 33488896 0 0 0 0
8.1999998 7 1.1 33488896 0 0 0 0
8.3000002 7 1.1 33488896 0 0 0 0
8.3999996 7 1.1 33488896 0 0 0 0
8.5 7 1.1 33488896 0 0 0 0
8.6000004 7 1.1 33488896 0 0 0 0
8.6999998 7 1.1 33488896 0 0 0 0
8 7.0999999 1.1 33488896 0 0 0 0
8.1000004 7.0999999 1.1 33488896 0 0 0 0
8.1999998 7.0999999 1.1 33488896 0 0 0 0
8.3000002 7.0999999 1.1 33488896 0 0 0 0
8.3999996 7.0999999 1.1 33488896 0 0 0 0
8.5 7.0999999 1.1 33488896 0 0 0 0
8.6000004 7.0999999 1.1 33488896 0 0 0 0
8.6999998 7.0999999 1.1 33488896 0 0 0 0
8 7 2.4000001 33488896 0 0 0 0
8.1000004 7 2.4000001 33488896 0 0 0 0
8.1999998 7 2.4000001 33488896 0 0 0 0
8.3000002 7 2.4000001 33488896 0 0 0 0
8.3999996 7 2.4000001 33488896 0 0 0 0
8.5 7 2.4000001 33488896 0 0 0 0
8.6000004 7 2.4000001 33488896 0 0 0 0
8.6999998 7 2.4000001 33488896 0 0 0 0
8 7.0999999 2.4000001 33488896 0 0 0 0
8.1000004 7.0999999 2.4000001 33488896 0 0 0 0
8.1999998 7.0999999 2.4000001 33488896 0 0 0 0
8.3000002 7.0999999 2.4000001 33488896 0 0 0 0
8.3999996 7.0999999 2.4000001 33488896 0 0 0 0
8.5 7.0999999 2.4000001 33488896 0 0 0 0
8.6000004 7.0999999 2.4000001 33488896 0 0 0 0
8.6999998 7.0999999 2.4000001 33488896 0 0 0 0
8 7.2000003 0.30000001 33488896 0 0 0 0
8.1000004 7.2000003 0.30000001 33488896 0 0 0 0
8.1999998 7.2000003 0.30000001 33488896 0 0 0 0
8.3000002 7.2000003 0.30000001 33488896 0 0 0 0
8.3999996 7.2000003 0.30000001 33488896 0 0 0 0
8.5 7.2000003 0.30000001 33488896 0 0 0 0
8.6000004 7.2000003 0.30000001 33488896 0 0 0 0
8.6999998 7.2000003 0.30000001 33488896 0 0 0 0
8 7.3000002 0.30000001 33488896 0 0 0 0
8.1000004 7.3000002 0.30000001 33488896 0 0 0 0
8.1999998 7.3000002 0.30000001 33488896 0 0 0 0
8.3000002 7.3000002 0.30000001 33488896 0 0 0 0
8.3999996 7.3000002 0.30000001 33488896 0 0 0 0
8.5 7.3000002 0.30000001 33488896 0 0 0 0
8.6000004 7.3000002 0.30000001 33488896 0 0 0 0
8.6999998 7.3000002 0.30000001 33488896 0 0 0 0
8 7.4000001 0.30000001 33488896 0 0 0 0
8.1000004 7.4000001 0.30000001 33488896 0 0 0 0
8.1999998 7.4000001 0.30000001 33488896 0 0 0 0
8.3000002 7.4000001 0.30000001 33488896 0 0 0 0
8.3999996 7.4000001 0.30000001 33488896 0 0 0 0
8.5 7.4000001 0.30000001 33488896 0 0 0 0
8.6000004 7.4000001 0.30000001 33488896 0 0 0 0
8.6999998 7.4000001 0.30000001 33488896 0 0 0 0
8 7.0999999 2.9000001 33488896 0 0 0 0
8.1000004 7.0999999 2.9000001 33488896 0 0 0 0
8.1999998 7.0999999 2.9000001 33488896 0 0 0 0
8.3000002 7.0999999 2.9000001 33488896 0 0 0 0
8.3999996 7.0999999 2.9000001 33488896 0 0 0 0
8.5 7.0999999 2.9000001 33488896 0 0 0 0
8.6000004 7.0999999 2.9000001 33488896 0 0 0 0
8.6999998 7.0999999 2.9000001 33488896 0 0 0 0
8 7.0999999 0 33488896 0 0 0 0
8.1000004 7.0999999 0 33488896 0 0 0 0
8.1999998 7.0999999 0 33488896 0 0 0 0
8.3000002 7.0999999 0 33488896 0 0 0 0
8.3999996 7.0999999 0 33488896 0 0 0 0
8.5 7.0999999 0 33488896 0 0 0 0
8.6000004 7.0999999 0 33488896 0 0 0 0
8.6999998 7.0999999 0 33488896 0 0 0 0
8 7.0999999 0.1 33488896 0 0 0 0
8.1000004 7.0999999 0.1 33488896 0 0 0 0
8.1999998 7.0999999 0.1 33488896 0 0 0 0
8.3000002 7.0999999 0.1 33488896 0 0 0 0
8.3999996 7.0999999 0.1 33488896 0 0 0 0
8.5 7.0999999 0.1 33488896 0 0 0 0
8.6000004 7.0999999 0.1 33488896 0 0 0 0
8.6999998 7.0999999 0.1 33488896 0 0 0 0
8 7 2.7 33488896 0 0 0 0
8.1999998 7 2.7 33488896 0 0 0 0
8 7.0999999 2.7 33488896 0 0 0 0
8.1000004 7.0999999 2.7 33488896 0 0 0 0
8.1999998 7.0999999 2.7 33488896 0 0 0 0
8.3000002 7.0999999 2.7 33488896 0 0 0 0
8.3999996 7.0999999 2.7 33488896 0 0 0 0
8.5 7.0999999 2.7 33488896 0 0 0 0
8.6000004 7.0999999 2.7 33488896 0 0 0 0
8.6999998 7.0999999 2.7 33488896 0 0 0 0
8.6000004 7.6000004 0.69999999 33488896 0 0 0 0
8.6999998 7.6000004 0.69999999 33488896 0 0 0 0
8.6000004 7.7000003 0.69999999 33488896 0 0 0 0
8.6999998 7.7000003 0.69999999 33488896 0 0 0 0
8.6000004 7.8000002 0.69999999 33488896 0 0 0 0
8.6999998 7.8000002 0.69999999 33488896 0 0 0 0
8.6000004 7.9000001 0.69999999 33488896 0 0 0 0
8.6999998 7.9000001 0.69999999 33488896 0 0 0 0
8 7.6000004 0.5 33488896 0 0 0 0
8.1000004 7.6000004 0.5 33488896 0 0 0 0
8.1999998 7.6000004 0.5 33488896 0 0 0 0
8.3000002 7.6000004 0.5 33488896 0 0 0 0
8.3999996 7.6000004 0.5 33488896 0 0 0 0
8 7.7000003 0.5 33488896 0 0 0 0
8.1000004 7.7000003 0.5 33488896 0 0 0 0
8.1999998 7.7000003 0.5 33488896 0 0 0 0
8.3000002 7.7000003 0.5 33488896 0 0 0 0
8.3999996 7.7000003 0.5 33488896 0 0 0 0
8 7.8000002 0.5 33488896 0 0 0 0
8.1000004 7.8000002 0.5 33488896 0 0 0 0
8.1999998 7.8000002 0.5 33488896 0 0 0 0
8.3000002 7.8000002 0.5 33488896 0 0 0 0
8.3999996 7.8000002 0.5 33488896 0 0 0 0
8 7.9000001 0.5 33488896 0 0 0 0
8.1000004 7.9000001 0.5 33488896 0 0 0 0
8.1999998 7.9000001 0.5 33488896 0 0 0 0
8.3000002 7.9000001 0.5 33488896 0 0 0 0
8.3999996 7.9000001 0.5 33488896 0 0 0 0
8 6.9000001 0.90000004 33488896 0 0 0 0
8.1000004 6.9000001 0.90000004 33488896 0 0 0 0
8.1999998 6.9000001 0.90000004 33488896 0 0 0 0
8.3000002 6.9000001 0.90000004 33488896 0 0 0 0
8.3999996 6.9000001 0.90000004 33488896 0 0 0 0
8 7 0.90000004 33488896 0 0 0 0
8.1000004 7 0.90000004 33488896 0 0 0 0
8.1999998 7 0.90000004 33488896 0 0 0 0
8.3000002 7 0.90000004 33488896 0 0 0 0
8.3999996 7 0.90000004 33488896 0 0 0 0
8.5 7 0.90000004 33488896 0 0 0 0
8.6000004 7 0.90000004 33488896 0 0 0 0
8.6999998 7 0.90000004 33488896 0 0 0 0
8 7.0999999 0.90000004 33488896 0 0 0 0
8.1000004 7.0999999 0.90000004 33488896 0 0 0 0
8.1999998 7.0999999 0.90000004 33488896 0 0 0 0
8.3000002 7.0999999 0.90000004 33488896 0 0 0 0
8.3999996 7.0999999 0.90000004 33488896 0 0 0 0
8.5 7.0999999 0.90000004 33488896 0 0 0 0
8.6000004 7.0999999 0.90000004 33488896 0 0 0 0
8.6999998 7.0999999 0.90000004 33488896 0 0 0 0
8 7.2000003 0.60000002 33488896 0 0 0 0
8.1000004 7.2000003 0.60000002 33488896 0 0 0 0
8.1999998 7.2000003 0.60000002 33488896 0 0 0 0
8.3000002 7.2000003 0.60000002 33488896 0 0 0 0
8.3999996 7.2000003 0.60000002 33488896 0 0 0 0
8.5 7.2000003 0.60000002 33488896 0 0 0 0
8.6000004 7.2000003 0.60000002 33488896 0 0 0 0
8.6999998 7.2000003 0.60000002 33488896 0 0 0 0
8.1000004 7.3000002 0.60000002 33488896 0 0 0 0
8.1999998 7.3000002 0.60000002 33488896 0 0 0 0
8.3000002 7.3000002 0.60000002 33488896 0 0 0 0
8.3999996 7.3000002 0.60000002 33488896 0 0 0 0
8.5 7.3000002 0.60000002 33488896 0 0 0 0
8.6000004 7.3000002 0.60000002 33488896 0 0 0 0
8.6999998 7.3000002 0.60000002 33488896 0 0 0 0
8.1000004 7.4000001 0.60000002 33488896 0 0 0 0
8.1999998 7.4000001 0.60000002 33488896 0 0 0 0
8.3000002 7.4000001 0.60000002 33488896 0 0 0 0
8.3999996 7.4000001 0.60000002 33488896 0 0 0 0
8.5 7.4000001 0.60000002 33488896 0 0 0 0
8.6000004 7.4000001 0.60000002 33488896 0 0 0 0
8.6999998 7.4000001 0.60000002 33488896 0 0 0 0
8.1999998 7.5000005 0.60000002 33488896 0 0 0 0
8.3000002 7.5000005 0.60000002 33488896 0 0 0 0
8.3999996 7.5000005 0.60000002 33488896 0 0 0 0
8.5 7.5000005 0.60000002 33488896 0 0 0 0
8.6000004 7.5000005 0.60000002 33488896 0 0 0 0
8.6999998 7.5000005 0.60000002 33488896 0 0 0 0
8.8000002 7 1 33488896 0 0 0 0
8.9000006 7 1 33488896 0 0 0 0
9 7 1 33488896 0 0 0 0
9.1000004 7 1 33488896 0 0 0 0
9.1999998 7 1 33488896 0 0 0 0
9.3000002 7 1 33488896 0 0 0 0
9.4000006 7 1 33488896 0 0 0 0
9.5 7 1 33488896 0 0 0 0
8.8000002 7.0999999 1 33488896 0 0 0 0
8.9000006 7.0999999 1 33488896 0 0 0 0
9 7.0999999 1 33488896 0 0 0 0
9.1000004 7.0999999 1 33488896 0 0 0 0
9.1999998 7.0999999 1 33488896 0 0 0 0
9.3000002 7.0999999 1 33488896 0 0 0 0
9.4000006 7.0999999 1 33488896 0 0 0 0
9.5 7.0999999 1 33488896 0 0 0 0
8.1999998 7.6000004 0.60000002 33488896 0 0 0 0
8.3000002 7.6000004 0.60000002 33488896 0 0 0 0
8.3999996 7.6000004 0.60000002 33488896 0 0 0 0
8.5 7.6000004 0.60000002 33488896 0 0 0 0
8.6000004 7.6000004 0.60000002 33488896 0 0 0 0
8.6999998 7.6000004 0.60000002 33488896 0 0 0 0
8.1999998 7.7000003 0.60000002 33488896 0 0 0 0
8.3000002 7.7000003 0.60000002 33488896 0 0 0 0
8.3999996 7.7000003 0.60000002 33488896 0 0 0 0
8.5 7.7000003 0.60000002 33488896 0 0 0 0
8.6000004 7.7000003 0.60000002 33488896 0 0 0 0
8.6999998 7.7000003 0.60000002 33488896 0 0 0 0
8.1999998 7.8000002 0.60000002 33488896 0 0 0 0
8.3000002 7.8000002 0.60000002 33488896 0 0 0 0
8.3999996 7.8000002 0.60000002 33488896 0 0 0 0
8.5 7.8000002 0.60000002 33488896 0 0 0 0
8.6000004 7.8000002 0.60000002 33488896 0 0 0 0
8.6999998 7.8000002 0.60000002 33488896 0 0 0 0
8.1999998 7.9000001 0.60000002 33488896 0 0 0 0
8.3000002 7.9000001 0.60000002 33488896 0 0 0 0
8.3999996 7.9000001 0.60000002 33488896 0 0 0 0
8.5 7.9000001 0.60000002 33488896 0 0 0 0
8.6000004 7.9000001 0.60000002 33488896 0 0 0 0
8.6999998 7.9000001 0.60000002 33488896 0 0 0 0
8.8000002 7 0.80000001 33488896 0 0 0 0
8.9000006 7 0.80000001 33488896 0 0 0 0
9 7 0.80000001 33488896 0 0 0 0
8.8000002 7.0999999 0.80000001 33488896 0 0 0 0
8.9000006 7.0999999 0.80000001 33488896 0 0 0 0
9 7.0999999 0.80000001 33488896 0 0 0 0
9.1000004 7.0999999 0.80000001 33488896 0 0 0 0
9.1999998 7.0999999 0.80000001 33488896 0 0 0 0
9.3000002 7.0999999 0.80000001 33488896 0 0 0 0
9.4000006 7.0999999 0.80000001 33488896 0 0 0 0
9.5 7.0999999 0.80000001 33488896 0 0 0 0
8 7 2.5 33488896 0 0 0 0
8.1000004 7 2.5 33488896 0 0 0 0
8.1999998 7 2.5 33488896 0 0 0 0
8.3000002 7 2.5 33488896 0 0 0 0
8.5 7 2.5 33488896 0 0 0 0
8.6999998 7 2.5 33488896 0 0 0 0
8 7.0999999 2.5 33488896 0 0 0 0
8.1000004 7.0999999 2.5 33488896 0 0 0 0
8.1999998 7.0999999 2.5 33488896 0 0 0 0
8.3000002 7.0999999 2.5 33488896 0 0 0 0
8.3999996 7.0999999 2.5 33488896 0 0 0 0
8.5 7.0999999 2.5 33488896 0 0 0 0
8.6000004 7.0999999 2.5 33488896 0 0 0 0
8.6999998 7.0999999 2.5 33488896 0 0 0 0
9.1999998 6.9000001 1.8000001 33488896 0 0 0 0
9.3000002 6.9000001 1.8000001 33488896 0 0 0 0
9.4000006 6.9000001 1.8000001 33488896 0 0 0 0
9.5 6.9000001 1.8000001 33488896 0 0 0 0
8.8000002 7 1.8000001 33488896 0 0 0 0
8.9000006 7 1.8000001 33488896 0 0 0 0
9 7 1.8000001 33488896 0 0 0 0
9.1000004 7 1.8000001 33488896 0 0 0 0
9.1999998 7 1.8000001 33488896 0 0 0 0
9.3000002 7 1.8000001 33488896 0 0 0 0
9.4000006 7 1.8000001 33488896 0 0 0 0
9.5 7 1.8000001 33488896 0 0 0 0
8.8000002 7.0999999 1.8000001 33488896 0 0 0 0
8.9000006 7.0999999 1.8000001 33488896 0 0 0 0
9 7.0999999 1.8000001 33488896 0 0 0 0
9.1000004 7.0999999 1.8000001 33488896 0 0 0 0
9.1999998 7.0999999 1.8000001 33488896 0 0 0 0
9.3000002 7.0999999 1.8000001 33488896 0 0 0 0
9.4000006 7.0999999 1.8000001 33488896 0 0 0 0
9.5 7.0999999 1.8000001 33488896 0 0 0 0
9 6.9000001 1.7 33488896 0 0 0 0
9.1000004 6.9000001 1.7 33488896 0 0 0 0
9.1999998 6.9000001 1.7 33488896 0 0 0 0
9.3000002 6.9000001 1.7 33488896 0 0 0 0
9.4000006 6.9000001 1.7 33488896 0 0 0 0
9.5 6.9000001 1.7 33488896 0 0 0 0
8.8000002 7 1.7 33488896 0 0 0 0
8.9000006 7 1.7 33488896 0 0 0 0
9 7 1.7 33488896 0 0 0 0
9.1000004 7 1.7 33488896 0 0 0 0
9.1999998 7 1.7 33488896 0 0 0 0
9.3000002 7 1.7 33488896 0 0 0 0
9.4000006 7 1.7 33488896 0 0 0 0
9.5 7 1.7 33488896 0 0 0 0
8.8000002 7.0999999 1.7 33488896 0 0 0 0
8.9000006 7.0999999 1.7 33488896 0 0 0 0
9 7.0999999 1.7 33488896 0 0 0 0
9.1000004 7.0999999 1.7 33488896 0 0 0 0
9.1999998 7.0999999 1.7 33488896 0 0 0 0
9.3000002 7.0999999 1.7 33488896 0 0 0 0
9.4000006 7.0999999 1.7 33488896 0 0 0 0
9.5 7.0999999 1.7 33488896 0 0 0 0
8.8000002 7 0.90000004 33488896 0 0 0 0
8.9000006 7 0.90000004 33488896 0 0 0 0
9 7 0.90000004 33488896 0 0 0 0
9.1000004 7 0.90000004 33488896 0 0 0 0
9.1999998 7 0.90000004 33488896 0 0 0 0
9.3000002 7 0.90000004 33488896 0 0 0 0
9.4000006 7 0.90000004 33488896 0 0 0 0
9.5 7 0.90000004 33488896 0 0 0 0
8.8000002 7.0999999 0.90000004 33488896 0 0 0 0
8.9000006 7.0999999 0.90000004 33488896 0 0 0 0
9 7.0999999 0.90000004 33488896 0 0 0 0
9.1000004 7.0999999 0.90000004 33488896 0 0 0 0
9.1999998 7.0999999 0.90000004 33488896 0 0 0 0
9.3000002 7.0999999 0.90000004 33488896 0 0 0 0
9.4000006 7.0999999 0.90000004 33488896 0 0 0 0
9.5 7.0999999 0.90000004 33488896 0 0 0 0
8 7 2.6000001 33488896 0 0 0 0
8.1000004 7 2.6000001 33488896 0 0 0 0
8.1999998 7 2.6000001 33488896 0 0 0 0
8.3000002 7 2.6000001 33488896 0 0 0 0
8.5 7 2.6000001 33488896 0 0 0 0
8 7.0999999 2.6000001 33488896 0 0 0 0
8.1000004 7.0999999 2.6000001 33488896 0 0 0 0
8.1999998 7.0999999 2.6000001 33488896 0 0 0 0
8.3000002 7.0999999 2.6000001 33488896 0 0 0 0
8.3999996 7.0999999 2.6000001 33488896 0 0 0 0
8.5 7.0999999 2.6000001 33488896 0 0 0 0
8.6000004 7.0999999 2.6000001 33488896 0 0 0 0
8.6999998 7.0999999 2.6000001 33488896 0 0 0 0
9.3000002 6.9000001 1.9 33488896 0 0 0 0
9.4000006 6.9000001 1.9 33488896 0 0 0 0
9.5 6.9000001 1.9 33488896 0 0 0 0
8.8000002 7 1.9 33488896 0 0 0 0
8.9000006 7 1.9 33488896 0 0 0 0
9 7 1.9 33488896 0 0 0 0
9.1000004 7 1.9 33488896 0 0 0 0
9.1999998 7 1.9 33488896 0 0 0 0
9.3000002 7 1.9 33488896 0 0 0 0
9.4000006 7 1.9 33488896 0 0 0 0
9.5 7 1.9 33488896 0 0 0 0
8.8000002 7.0999999 1.9 33488896 0 0 0 0
8.9000006 7.0999999 1.9 33488896 0 0 0 0
9 7.0999999 1.9 33488896 0 0 0 0
9.1000004 7.0999999 1.9 33488896 0 0 0 0
9.1999998 7.0999999 1.9 33488896 0 0 0 0
9.3000002 7.0999999 1.9 33488896 0 0 0 0
9.4000006 7.0999999 1.9 33488896 0 0 0 0
9.5 7.0999999 1.9 33488896 0 0 0 0
8.8000002 6.9000001 1.6 33488896 0 0 0 0
9.1000004 6.9000001 1.6 33488896 0 0 0 0
9.1999998 6.9000001 1.6 33488896 0 0 0 0
9.3000002 6.9000001 1.6 33488896 0 0 0 0
